2.467510834166876066e+01 2.134430247626728416e+01 4.050679987268286197e+01
2.385825319595162952e+01 2.029829917522676297e+01 4.511844363711876582e+01
2.336154911400720735e+01 2.155770238436076625e+01 4.782808789834327712e+01
2.499618346489211973e+01 2.203821282570424955e+01 4.958418649817937052e+01
2.313946948015667004e+01 2.124346858005314687e+01 5.182629433164673571e+01
2.387746012622158531e+01 2.076784884991805669e+01 5.348494035780386469e+01
2.505129278367517287e+01 2.117850751568963830e+01 5.734372151809979812e+01
2.347040010055403414e+01 2.094609694890324647e+01 5.910498153903862573e+01
2.477940421904074597e+01 2.105215438311471843e+01 6.501057264446663453e+01
2.437963442525514779e+01 2.098266591173804230e+01 6.800685803659250439e+01
2.438341865524613539e+01 2.065833151043063864e+01 7.070929396910443643e+01
2.297707028647358740e+01 2.273687695287573973e+01 7.609992976876586113e+01
2.460437309986656018e+01 2.128547269538682940e+01 8.236632468495558612e+01
2.308149127992341576e+01 2.029396231803415418e+01 8.590379105040523200e+01
2.512161978502152238e+01 2.165119189734731009e+01 8.755801409804074353e+01
2.463700934725014946e+01 2.128279418046686899e+01 8.874353169356119508e+01
2.470521812208465917e+01 2.217529819596296647e+01 9.298124527719735966e+01
2.427897187714571459e+01 2.269619251962480178e+01 9.403348259299831113e+01
2.363825507464330045e+01 2.455384525433903420e+01 4.999640001535887279e+00
2.290945317016494087e+01 2.361716600018227652e+01 9.476793968711827887e+00
2.362740048839286899e+01 2.459052602136443255e+01 1.032952896454215619e+01
2.324472481464924201e+01 2.290424055739145359e+01 1.501795672789282321e+01
2.435992711859521620e+01 2.378427017004799282e+01 1.663480519712449279e+01
2.502844458668940320e+01 2.395668726186105246e+01 1.900038064850605579e+01
2.427644107658684192e+01 2.293956369901743031e+01 2.028776353988745029e+01
2.376955959423622389e+01 2.308161643050874545e+01 2.496898663683276709e+01
2.507644526553668385e+01 2.420708110426689075e+01 2.549283451924465638e+01
2.409729037832729759e+01 2.489213477997910218e+01 2.973938220617362660e+01
2.291749083871953374e+01 2.361686836681539248e+01 3.170120744653901568e+01
2.290615462713052608e+01 2.278214896767935116e+01 3.372347879724920716e+01
2.355663669109179281e+01 2.329832546683653405e+01 3.734125179446808573e+01
2.283327645777094617e+01 2.437803207887204593e+01 3.981154752483489290e+01
2.477000559804040236e+01 2.313817740485514207e+01 4.346694516771473360e+01
2.289806405566361391e+01 2.448543615689001740e+01 5.459096666454716740e+01
2.349751531841783958e+01 2.451513635606333708e+01 5.694523482545208282e+01
2.391147081748521330e+01 2.281240309494205576e+01 5.844572817817799404e+01
2.375664133442280246e+01 2.399522618084928283e+01 6.138089314210181158e+01
2.454716027451170390e+01 2.456014415243938842e+01 6.398074385548856213e+01
2.510103277629023211e+01 2.494784214682465162e+01 6.802074819641181591e+01
2.460940380083259527e+01 2.442308854858302780e+01 6.865140391415452825e+01
2.362642360183904344e+01 2.396246285161275225e+01 7.225384851456230706e+01
2.464635689875692748e+01 2.336092602305394195e+01 7.434669258881385190e+01
2.394860031575219850e+01 2.501256244327733214e+01 7.739901420273818644e+01
2.407406528588035144e+01 2.361179620644588795e+01 7.948179599771827952e+01
2.360061264696973282e+01 2.511464882108912633e+01 8.505382364503500980e+01
2.288873984145530827e+01 2.518031646962350933e+01 8.629768439782790779e+01
2.470833470321499448e+01 2.452650101633577862e+01 8.904201705688663537e+01
2.469963323747433748e+01 2.368178913885167347e+01 9.304935828423720068e+01
2.502298818858795926e+01 2.308509024949533384e+01 9.460650810062477944e+01
2.327661612746886277e+01 2.421495495712730062e+01 9.646078950232147520e+01
2.423363540459580889e+01 2.524741635061491607e+01 9.967131752782516685e+01
2.365115261904400157e+01 2.772051560168543460e+01 2.001078117913079879e+00
2.344429725189425184e+01 2.782966639567082723e+01 9.998215448454928378e+00
2.520462900071948198e+01 2.653650112616734447e+01 1.631771958157895952e+01
2.318277327521940379e+01 2.672253991030670761e+01 2.226277215152787647e+01
2.474651114511522465e+01 2.744926124798728750e+01 2.278400254969903216e+01
2.375231379863497239e+01 2.713061012584662279e+01 2.580592125384072588e+01
2.426702968293644602e+01 2.680013507716982701e+01 2.969222195422226562e+01
2.438294568926800920e+01 2.666777933785775545e+01 3.120066133551230436e+01
2.416699331401230921e+01 2.537601772316141435e+01 3.921523648349324276e+01
2.330766262187269433e+01 2.645020314101691383e+01 4.228028654787654261e+01
2.400493240358345659e+01 2.579720674792682544e+01 4.359945478409700570e+01
2.352557816398980250e+01 2.747033466858728090e+01 4.618911325260673095e+01
2.301052764019845398e+01 2.750663762383809186e+01 4.952714409220975966e+01
2.408431576134661967e+01 2.584052926462852184e+01 5.184393057071586952e+01
2.461034649610439473e+01 2.659466806417688645e+01 5.330984785995263309e+01
2.279315580561178578e+01 2.601280556690202062e+01 5.723672596280781022e+01
2.386536111687238559e+01 2.576004924025922094e+01 6.011970195569588071e+01
2.337294135721934651e+01 2.541412357682314394e+01 6.265339348751249560e+01
2.468562290491407296e+01 2.693303968097190548e+01 6.811745004995763964e+01
2.418955606997703711e+01 2.589726617197064584e+01 6.843114408964345330e+01
2.469765190872518090e+01 2.640660031223494997e+01 7.093931363711502058e+01
2.394486818172256903e+01 2.594561242488592256e+01 7.480931052537368942e+01
2.346903130700154350e+01 2.601606290715813330e+01 7.608453101649428163e+01
2.305712896938200274e+01 2.687090287568493352e+01 8.002556035835235093e+01
2.313960436269959331e+01 2.535738532841326176e+01 8.206388659201373059e+01
2.517240340355239070e+01 2.733214727355107598e+01 8.396319071089887132e+01
2.358096167089017570e+01 2.578822894630214790e+01 8.807315500821492549e+01
2.430592930055228607e+01 2.657724434488540766e+01 8.973211690492287573e+01
2.282288129447962532e+01 2.768292320006112561e+01 9.239900218351007766e+01
2.359123311158538527e+01 2.545324957897992135e+01 9.456891947630779782e+01
2.443433099843033318e+01 2.533944608030401824e+01 9.628806529383676605e+01
2.443351601109041837e+01 2.858443098003787952e+01 1.266155325042372937e+00
2.366158463256937594e+01 2.821794587004590227e+01 3.891023190758569061e+00
2.296109105050233623e+01 3.034405588803089771e+01 5.404476609731601044e+00
2.500250593030700585e+01 2.840742829126732261e+01 7.697631815163463287e+00
2.462667810686622971e+01 2.881532898927657982e+01 1.085983397454646138e+01
2.455596225395431276e+01 2.947015917964470688e+01 1.485203222012072644e+01
2.283860303916578260e+01 2.973804995422335651e+01 1.711733568213683654e+01
2.453758254293923002e+01 2.987829085109892091e+01 2.123663404341685634e+01
2.314685960109954621e+01 2.951061713654608099e+01 2.655110136922857933e+01
2.392320676782579980e+01 2.857312700577702103e+01 2.879488398370151359e+01
2.458316744595624570e+01 3.028927200759214955e+01 3.173247317848320037e+01
2.280817905894286923e+01 2.874359134851187747e+01 3.625834269312744595e+01
2.348784534617674069e+01 2.985586466628788926e+01 3.859156298682111697e+01
2.405574276998010319e+01 2.825261901703047940e+01 4.235934015382496654e+01
2.352531253801693012e+01 2.894550924488924437e+01 4.837567608305772637e+01
2.297500012805110359e+01 2.943124653310313832e+01 5.311676668854624950e+01
2.478769024946346633e+01 2.877906853439809964e+01 5.413527000043104920e+01
2.465062586401631961e+01 2.867599343217254315e+01 5.725331994550612080e+01
2.375940650896366435e+01 3.021093117747560797e+01 6.052236965267672986e+01
2.370434993843918292e+01 2.814168830490446638e+01 6.087590242558638209e+01
2.303360344371096957e+01 2.851201581182034772e+01 6.498901626936277864e+01
2.318379045094319935e+01 2.833712008132865989e+01 6.965710420429370231e+01
2.390431019582365124e+01 2.783381658243489909e+01 7.141514542082671824e+01
2.466733847016413606e+01 3.000760917374708470e+01 7.592407158426006220e+01
2.512573291845225754e+01 2.932939035060832111e+01 7.996101030418131472e+01
2.480272302005505125e+01 2.894819442581642122e+01 8.104758511870105053e+01
2.305277068581420608e+01 3.015181868646471486e+01 8.432658855503582629e+01
2.436782503415774315e+01 2.960260463195752934e+01 8.737722693622362158e+01
2.502490095305891415e+01 2.998203797769177825e+01 8.869982808309164568e+01
2.340735075322151104e+01 2.966639394978460942e+01 9.108321703602693731e+01
2.526044934270519349e+01 2.831163530817961771e+01 9.498532344745380840e+01
2.335460422684896287e+01 2.996580505821240337e+01 9.822541972293696233e+01
2.492619789089035720e+01 2.949477994360655231e+01 9.881020130815882396e+01
2.348260021088347571e+01 3.101499586342720960e+01 2.088912692247624214e+00
2.470616514764497751e+01 3.202557457086147252e+01 4.728004444473443257e+00
2.380390187937665303e+01 3.235211030876838123e+01 7.980216499562631682e+00
2.328074652562286317e+01 3.055121130346067915e+01 1.250469801638411838e+01
2.434810623035485833e+01 3.238464999497929853e+01 1.513578893565154004e+01
2.402749194492022156e+01 3.187203863438683271e+01 1.842395842601261080e+01
2.453799715010882565e+01 3.095222914090091137e+01 2.478846665219107592e+01
2.492233738688857159e+01 3.066960392989768280e+01 2.661999630370317504e+01
2.386953137594842644e+01 3.247180531582101537e+01 2.792345726512561654e+01
2.316629476399110388e+01 3.099838762696324324e+01 3.293477615997188224e+01
2.361898398964882162e+01 3.045789693145721699e+01 3.689591610873200977e+01
2.424722261548875224e+01 3.143872790352702040e+01 4.287900244064692146e+01
2.352815785329658382e+01 3.090010403569846176e+01 4.418320494119507202e+01
2.432291834317842216e+01 3.176077884030561549e+01 4.689612674588317276e+01
2.474571860818299740e+01 3.150245771146568075e+01 5.006770213261564351e+01
2.291089685152418554e+01 3.157832181506453750e+01 5.453653942746395700e+01
2.337848834953860688e+01 3.056758619448973846e+01 5.996374990416038031e+01
2.458283247651060677e+01 3.156959621629058432e+01 6.188070293050895998e+01
2.496880444962462775e+01 3.187714004104493881e+01 6.419483445457923665e+01
2.458837338786536009e+01 3.185943453121626945e+01 6.767460251649616509e+01
2.307739412858946793e+01 3.259239398214991468e+01 7.083602670365968379e+01
2.470871810303913918e+01 3.108743630559082050e+01 7.458593349877891399e+01
2.371339987593867704e+01 3.104933627425117137e+01 7.827885524310302401e+01
2.349284427302769274e+01 3.150498033718244173e+01 8.012147892927727355e+01
2.516866992373684297e+01 3.149261473278913570e+01 8.257114166382807241e+01
2.345250502029355744e+01 3.288537684100821679e+01 8.418184017866217062e+01
2.391794544283605362e+01 3.288253921407867608e+01 8.797354341441024417e+01
2.380619544136213150e+01 3.123643268345963619e+01 9.077627673068253955e+01
2.373237516263583302e+01 3.084932548733997493e+01 9.354379822957834278e+01
2.312549529796884684e+01 3.078740979600232919e+01 9.454309703916057117e+01
2.441571609201504955e+01 3.069695220356057774e+01 9.779396604994143161e+01
2.323184911116734597e+01 3.291045600682507200e+01 7.413917407050218955e-01
2.401015056634311406e+01 3.495512423681319802e+01 7.163112281980243523e+00
2.301200295386311012e+01 3.328747670313237705e+01 9.739249646921654957e+00
2.280737986323135758e+01 3.401801375694957130e+01 1.460230094968507686e+01
2.298290105761534718e+01 3.420515101448130224e+01 1.529015656961555436e+01
2.345499020670308710e+01 3.371491136649515141e+01 1.902605089233324520e+01
2.474393724849014475e+01 3.411800538293559271e+01 2.121854248870077697e+01
2.280805492003556978e+01 3.502067000317340728e+01 2.338358448016833080e+01
2.322097551635923196e+01 3.534237032481688345e+01 2.628911770105110079e+01
2.443588789959518692e+01 3.304225120641303448e+01 2.876483753828908974e+01
2.305514138695983206e+01 3.331120627261200440e+01 3.240730806532604902e+01
2.319363906319036417e+01 3.538572944066383741e+01 3.517662428539414066e+01
2.410342579360787951e+01 3.289883669577091752e+01 3.910117738740840565e+01
2.479416751214687054e+01 3.530167432047215215e+01 4.140319930784338709e+01
2.398538048701547254e+01 3.306108851129730652e+01 4.532661610670598407e+01
2.429708516188389211e+01 3.452799321798462273e+01 4.589448538070180916e+01
2.327032154763559646e+01 3.471435040584104570e+01 5.009426348841328291e+01
2.408468674776681340e+01 3.402935900930553714e+01 5.175057287611352308e+01
2.388999842630977710e+01 3.431512959576365773e+01 5.509731195532830839e+01
2.372165432569094534e+01 3.312712597770084244e+01 5.761945307660848670e+01
2.301624017285393009e+01 3.506749954338693698e+01 5.985008517837093933e+01
2.480463296940992279e+01 3.315698041877778479e+01 6.317694004506117977e+01
2.487914804779115485e+01 3.410108812777784237e+01 6.465996223488392047e+01
2.327242791996317806e+01 3.327920792075244094e+01 6.780198964147594154e+01
2.479044442065481135e+01 3.305354430766774954e+01 7.025651223667443901e+01
2.411408171721797089e+01 3.348924858605933963e+01 7.243508132241240105e+01
2.421201531730653400e+01 3.354031390498091270e+01 7.473360944969714126e+01
2.525777014097909756e+01 3.536709980567249545e+01 7.657953545651544403e+01
2.303280864566434971e+01 3.432710454319234117e+01 8.067420393802855472e+01
2.326269928297655198e+01 3.485193694925632713e+01 8.149664793702473276e+01
2.517913336781453282e+01 3.458425679114242968e+01 8.597868723018274295e+01
2.393204619856428295e+01 3.358215454850077464e+01 8.681375655610995068e+01
2.292614425692263325e+01 3.499634952917752884e+01 8.964967151136283974e+01
2.382685105657250801e+01 3.380902924711948998e+01 9.206195058364188810e+01
2.305946366587214769e+01 3.440101756508538955e+01 9.482967516582631617e+01
2.367569771692906855e+01 3.457924555967088764e+01 9.777826407047068358e+01
2.412082006088981245e+01 3.335542788493479804e+01 9.976256565739741689e+01
2.409310357129852420e+01 3.641790126080415035e+01 1.732544459997065189e+00
2.424649588013292245e+01 3.625550760140045270e+01 3.339367070649090774e+00
2.342255497869884096e+01 3.635652387029377763e+01 5.242498946222662326e+00
2.418289394487878141e+01 3.784781411194542500e+01 1.009575629531125429e+01
2.486839814676644522e+01 3.734173996913172289e+01 1.153613344479915703e+01
2.375801024732970745e+01 3.692463625308693764e+01 1.280201609754644210e+01
2.332469330659778706e+01 3.779236787736635961e+01 1.871963972368025964e+01
2.362456851621387344e+01 3.644622235585145376e+01 2.113311860133122622e+01
2.277796510138875163e+01 3.700451207564940859e+01 2.429879342611185322e+01
2.301006363559886481e+01 3.647295159869923253e+01 2.924062722860815100e+01
2.352028968396897568e+01 3.771356551983777905e+01 3.161375281465294051e+01
2.489217901703910485e+01 3.755888639932106798e+01 3.622255875534380465e+01
2.507438647166359047e+01 3.708382718477219697e+01 3.874292618019873657e+01
2.355159901408568857e+01 3.702728363694740210e+01 4.187812563878610206e+01
2.364557131589389982e+01 3.759624313127088158e+01 4.311651309443107749e+01
2.519705639771295935e+01 3.552162496160789118e+01 4.672495859341366042e+01
2.480387880462339112e+01 3.693901396660272951e+01 4.912089819854356421e+01
2.326245505482644660e+01 3.742412948948297213e+01 5.227967795740016044e+01
2.483410430931973778e+01 3.752979492960511010e+01 5.487626239947191209e+01
2.374882975795426887e+01 3.685733638242973598e+01 5.816569340207482242e+01
2.464116635866464478e+01 3.789580846296550476e+01 5.965212193186677325e+01
2.522049999560648104e+01 3.693080382179401511e+01 6.099779806581810959e+01
2.352844721430378172e+01 3.632474143707165126e+01 6.601437330631092948e+01
2.391700595803945006e+01 3.584334506838123957e+01 7.256753200959350636e+01
2.316561289202818585e+01 3.662352214133757400e+01 7.564238386510918133e+01
2.517785839983249829e+01 3.574094137890210021e+01 7.977654495577114346e+01
2.524364497239887228e+01 3.565205149813245100e+01 8.151055282516593081e+01
2.485964758714106537e+01 3.777892093349232283e+01 8.376975884266003902e+01
2.325431690200560197e+01 3.554536566986384116e+01 8.841509720658245897e+01
2.528016115276597731e+01 3.685480631481875236e+01 9.497706637053613576e+01
2.430282420965457391e+01 3.747497424417252887e+01 9.833132710843250379e+01
2.401209348752066930e+01 3.664420054379251468e+01 9.886427560731220865e+01
2.323715894810022320e+01 3.842339443259529475e+01 1.592666302812217882e+00
2.295574262921979880e+01 3.963027309938903642e+01 4.833171576478556553e+00
2.481893938724664039e+01 3.976172041046847028e+01 6.209891390969090708e+00
2.412600337150678698e+01 3.909774017331791640e+01 8.272684735747192875e+00
2.412047157888407156e+01 3.925037716793649167e+01 1.052458847548152221e+01
2.319868689471461565e+01 3.997393351769281367e+01 1.567258717806451251e+01
2.398344739220861044e+01 3.800347837906247150e+01 1.927795958451628167e+01
2.321251132062423039e+01 3.904050598525267191e+01 2.315755362652615190e+01
2.351400092295757815e+01 4.014432895156855352e+01 2.793076745166385066e+01
2.447378092620863299e+01 3.932316786624590321e+01 3.225379154939692938e+01
2.489516762294267238e+01 3.832877676397181688e+01 3.335336512557602617e+01
2.428461782381838674e+01 4.011379070261332913e+01 3.668819446249237615e+01
2.453716967597481258e+01 3.810214358763936104e+01 4.240383256565561965e+01
2.292147918947831187e+01 4.027213261884799778e+01 4.398489470807815138e+01
2.413414634374921874e+01 3.934233143723548665e+01 4.671565040634811794e+01
2.426260437493894528e+01 3.898697113203659370e+01 4.825905335977746091e+01
2.520505755558989236e+01 4.045337510118731927e+01 5.079998729323460793e+01
2.401373530853273408e+01 3.941281233601704770e+01 5.499011010415107847e+01
2.379462157017056967e+01 4.008821721195062793e+01 6.142341378995241996e+01
2.498040836884884897e+01 3.937078996076063220e+01 6.328220423202903788e+01
2.290216645685835317e+01 3.809110708489122743e+01 6.786912297477520895e+01
2.302729426227855214e+01 4.043607101970735584e+01 7.071025435818130234e+01
2.349319369383238154e+01 3.846805111670239796e+01 7.350663165324235138e+01
2.354091210166041748e+01 3.924435142792926712e+01 7.627743859173253327e+01
2.279824986878188398e+01 3.835824634099655839e+01 8.148037792966690063e+01
2.470078232600614143e+01 4.040540016972543924e+01 8.515796598721905752e+01
2.527858430575374982e+01 3.933508088703015204e+01 8.818758351279917918e+01
2.309991561465867349e+01 4.029084691952635922e+01 8.920035993772985705e+01
2.318213807442547392e+01 3.833431080618999687e+01 9.223999881217575592e+01
2.322614168366363785e+01 3.826697553666507901e+01 9.397630103523137279e+01
2.474961833872756500e+01 3.811988640387581029e+01 9.686247808070808674e+01
2.305749485888001260e+01 4.249813663662630603e+01 3.067670471536210197e+00
2.453097335376541821e+01 4.096132400707952570e+01 6.637242432741841114e+00
2.526192833247871050e+01 4.170135014485507696e+01 9.731520204076527847e+00
2.294973471667134390e+01 4.050765638369002630e+01 1.066396497917784281e+01
2.441773207656334677e+01 4.223193852868266873e+01 1.395230415165650228e+01
2.313149238402011321e+01 4.071209435996245674e+01 1.610422292524818033e+01
2.446277683987883123e+01 4.250517234467413630e+01 1.847393477707604958e+01
2.443416137283350764e+01 4.157993480489794536e+01 2.061206604487269090e+01
2.426737504721483418e+01 4.048318236524741565e+01 2.515425422014099155e+01
2.344452137702921490e+01 4.202972554954666151e+01 2.605259821487243599e+01
2.467270653614449571e+01 4.289518465083293819e+01 2.872199363836404018e+01
2.321496511431799803e+01 4.085128416135599139e+01 3.105862738028968195e+01
2.388904087302046264e+01 4.214051795321873328e+01 3.332171710138690202e+01
2.497400865450394392e+01 4.163927564895254818e+01 3.759170927738849599e+01
2.341629009943877548e+01 4.210205830014783857e+01 3.806890442720393963e+01
2.374912217010171034e+01 4.050955893304267619e+01 4.232222442574033039e+01
2.396590807137481960e+01 4.136627418974293846e+01 4.445288554396677938e+01
2.389002796631609726e+01 4.204818529034660912e+01 4.804732199844844587e+01
2.371146650235370501e+01 4.143069905918655849e+01 4.849286611047038065e+01
2.451627995532792426e+01 4.109618001869084480e+01 5.450898061831858854e+01
2.453672098528447520e+01 4.205394666800984282e+01 5.573687913239169234e+01
2.483959946246335804e+01 4.270419869033646876e+01 6.009658879720640812e+01
2.304003143071755488e+01 4.266914121839200646e+01 6.104897350200319295e+01
2.456965109514940337e+01 4.183355953011681549e+01 6.620329939594704172e+01
2.338160059360782128e+01 4.106604907070317978e+01 7.037158207826436751e+01
2.417844686458907688e+01 4.120155275569313602e+01 7.310807994013165967e+01
2.297004850701449641e+01 4.236599531390238127e+01 7.490363635772267514e+01
2.486790886359038311e+01 4.228291284853110454e+01 8.102080704511512010e+01
2.285195696500332829e+01 4.201125752691453386e+01 8.497641227445488710e+01
2.340156105496232897e+01 4.260791585530772352e+01 8.808944334110991292e+01
2.408444612573919130e+01 4.256189935712203720e+01 8.957755689697140156e+01
2.288342276775642148e+01 4.239051877975644800e+01 9.335406864850921238e+01
2.364991099607814817e+01 4.214035409718056258e+01 9.512831941343496567e+01
2.428687406131044924e+01 4.296747102682867592e+01 9.746379712162658393e+01
2.293984162316723285e+01 4.228937840528501368e+01 9.957237609187890826e+01
2.367731271191165732e+01 4.438582967309970684e+01 9.904249880479887302e-01
2.303523796379017696e+01 4.323556528541507049e+01 4.142908746895546557e+00
2.407277659145398019e+01 4.380872213535332094e+01 6.206024997522840536e+00
2.445987912354933158e+01 4.455153369622609461e+01 9.208050311094806872e+00
2.481719437335595657e+01 4.478322521430829539e+01 1.202476238764130834e+01
2.464852187883795764e+01 4.496048246642796187e+01 1.403539065646177697e+01
2.401678670728629683e+01 4.379897830845342099e+01 1.637259316801312892e+01
2.424544683502589493e+01 4.313592442037088404e+01 1.892345811304312519e+01
2.455516422114472164e+01 4.447821938579971146e+01 2.149656299075452992e+01
2.316643544954682810e+01 4.341091948150864965e+01 2.320456317132758528e+01
2.325745317521513655e+01 4.330649410841083125e+01 2.574154665284971344e+01
2.477750639766844643e+01 4.550238357200728956e+01 3.270593687956181128e+01
2.342753852930650282e+01 4.342120561753352348e+01 3.374948128526422408e+01
2.381871564066720026e+01 4.427211450033880880e+01 3.657076745410833496e+01
2.343022526921357951e+01 4.307400499436416652e+01 3.868921830618098312e+01
2.284715502192305081e+01 4.443555568363377972e+01 4.136487281948028283e+01
2.413349562489609568e+01 4.511522535182778881e+01 4.552626483034973859e+01
2.447027658066911471e+01 4.383923226346209390e+01 4.596730317682858669e+01
2.469569877096976640e+01 4.307057117062832674e+01 5.031947342034817439e+01
2.352997978505717569e+01 4.442861991508492991e+01 5.309765901989671733e+01
2.315003208878283658e+01 4.395716571207371004e+01 5.558407517028921774e+01
2.452175626097137240e+01 4.491175442063304502e+01 5.730199230654361742e+01
2.398968259434944983e+01 4.355121931815320124e+01 5.997037354299985168e+01
2.402594744598484056e+01 4.365972175793494614e+01 6.168253230875938442e+01
2.441110259321178688e+01 4.479253785599135540e+01 6.995874022653411828e+01
2.501666608848170981e+01 4.359832301942731192e+01 7.114164382929556041e+01
2.489685550543780934e+01 4.405530874906501282e+01 7.389822098399945105e+01
2.523018620731717476e+01 4.458728182661965889e+01 7.640432185014056188e+01
2.317140938002868467e+01 4.549973659127775960e+01 7.895981099401426206e+01
2.324595458510754042e+01 4.327714925082673147e+01 8.202852456071317988e+01
2.306462890558095324e+01 4.454148716564917265e+01 8.369866149955565504e+01
2.329053035528881921e+01 4.547048160075712531e+01 8.625838657697156009e+01
2.504798570907512811e+01 4.379393432555946930e+01 9.058547252572941488e+01
2.336385401417737739e+01 4.477527057692866208e+01 9.222510809018704947e+01
2.338806451933986708e+01 4.339498499556368216e+01 9.537205647670825215e+01
2.491526371064504275e+01 4.331274309755632856e+01 9.809613956006555213e+01
2.349858477052404382e+01 4.566207694618551471e+01 4.687815963827102195e+00
2.495456168807816866e+01 4.631674818799111648e+01 1.020358310852846984e+01
2.444960026684264065e+01 4.795113646581778966e+01 1.350084546961616283e+01
2.302519008566888914e+01 4.684323577159095464e+01 1.923055639839145314e+01
2.491165569451156969e+01 4.687177655624100936e+01 2.104676674944538917e+01
2.513376803929022785e+01 4.627197044528458036e+01 2.439938358932176499e+01
2.529352723654921675e+01 4.774035457702809992e+01 2.725392508620576493e+01
2.352247481879937752e+01 4.639174423486502974e+01 3.343904959811963806e+01
2.521891482974594112e+01 4.792751706073530471e+01 3.773129690302597083e+01
2.469327422290085039e+01 4.628037979532710722e+01 3.818867100165513051e+01
2.416161363919459149e+01 4.582873393372909021e+01 4.289463893023101093e+01
2.477045266495596820e+01 4.721445666672990882e+01 4.364553526522090010e+01
2.458447152115088485e+01 4.602542757348587799e+01 4.635105406887672785e+01
2.520819432382778302e+01 4.768875111930104538e+01 4.811923378879185975e+01
2.470943671892354843e+01 4.762266828085274284e+01 5.305735630987441453e+01
2.379892885382218637e+01 4.793705845216697270e+01 5.499889969298047276e+01
2.300518096949530999e+01 4.688399578907009868e+01 5.798298600121987079e+01
2.326491477743183367e+01 4.636106807070334668e+01 6.033018310677616114e+01
2.443911377768072057e+01 4.760635235021349843e+01 6.171916324363650119e+01
2.354185406266605796e+01 4.756122725802101314e+01 6.567535651748681857e+01
2.486382827706538023e+01 4.621390955307709447e+01 6.843815636450646878e+01
2.356111737397338501e+01 4.792058157612656544e+01 7.831863894914117452e+01
2.406532100077674130e+01 4.662048610582790786e+01 8.089913191524878755e+01
2.456533564564705685e+01 4.733623129811705610e+01 8.783118956724212012e+01
2.405016603823485610e+01 4.782700098360412966e+01 8.910991972354736390e+01
2.400354759328682164e+01 4.605711800554340840e+01 9.318875548391245900e+01
2.468459205071874507e+01 4.726550800261497898e+01 9.436025391802000684e+01
2.363394310379943875e+01 4.592496580374988469e+01 9.754220597693824857e+01
2.430617810628321607e+01 4.705978590759942648e+01 9.967782695398503279e+01
2.503982128535727725e+01 4.833935352023920018e+01 3.999280190071696772e+00
2.446240728101428630e+01 4.878775730898144758e+01 7.106081845506084349e+00
2.391082807593118886e+01 5.054122487478667125e+01 1.185153987474761905e+01
2.505523737648730531e+01 4.990949806530561261e+01 1.417047945845854073e+01
2.304751109253713182e+01 4.881715915062987676e+01 1.778718352276347048e+01
2.296246377226096769e+01 5.024056407148506054e+01 2.180101077326964543e+01
2.452971928669861512e+01 4.954682769550513655e+01 2.353589418428014923e+01
2.334625306561654057e+01 4.860942308447060611e+01 2.772325235859176473e+01
2.484419177855757965e+01 4.873821204517063421e+01 2.901992372915736951e+01
2.484134650829710012e+01 5.058663838253083611e+01 3.103808259798114122e+01
2.289878000324001661e+01 4.826542631409698458e+01 3.503216511896957286e+01
2.309357197689768526e+01 4.988616375063349295e+01 3.560131531373789215e+01
2.443261586420519649e+01 4.966304670174951497e+01 4.005498693479459149e+01
2.429410190122587210e+01 4.970520067578320322e+01 4.054870222233076049e+01
2.435532413466077273e+01 4.903521263363207794e+01 4.320947829145332975e+01
2.458623382363586174e+01 4.945090522095373586e+01 4.564248310821265875e+01
2.326018774570842851e+01 4.892254993109374794e+01 4.820618527677348197e+01
2.517710833448759544e+01 4.912856561908983366e+01 5.102424320915971379e+01
2.357658934015812591e+01 4.842261821560911272e+01 5.505506931173292173e+01
2.281543948386198650e+01 4.996787128973097225e+01 5.732758487375818390e+01
2.414127060184241458e+01 4.815761246853341504e+01 6.047309906895203824e+01
2.440072060741359650e+01 4.837920386335419209e+01 6.090125816222619193e+01
2.412012734314692608e+01 4.895325448312465255e+01 6.601293923395465413e+01
2.370382497192907678e+01 4.879588964296983988e+01 7.762454934853957411e+01
2.337815494456897270e+01 5.009920113088972471e+01 8.040855074538201563e+01
2.285769272025304133e+01 4.858323699825738373e+01 8.111662546044959754e+01
2.323546020760790398e+01 5.003750600925538095e+01 8.411356792027913798e+01
2.499913051031952449e+01 4.849629695547189812e+01 8.706199455696702216e+01
2.476556872297603817e+01 4.930256325892110425e+01 8.860646887466245403e+01
2.489830957914243115e+01 4.873173141241760931e+01 9.339500829828043038e+01
2.485392971207865997e+01 4.981401590272920288e+01 9.584173108834069410e+01
2.386210568246078623e+01 4.829476100148441731e+01 9.659587135512346379e+01
2.396429111719500327e+01 5.306707858350018370e+01 1.061937874938712056e+00
2.434890744168383137e+01 5.302360494141819203e+01 3.230325703995229336e+00
2.435721250411786443e+01 5.164872606587734083e+01 6.097146922844065564e+00
2.339489465103854471e+01 5.139913927558670537e+01 9.021875190391547505e+00
2.305142433783813516e+01 5.187872552447843333e+01 1.219928674920630662e+01
2.424939267301208190e+01 5.194096549544375563e+01 1.457850729722822791e+01
2.501626570375232816e+01 5.249204552168713889e+01 1.799739942455251906e+01
2.372197456053788400e+01 5.277133113670925724e+01 2.218220681470444333e+01
2.499230794293786317e+01 5.239076660724037993e+01 2.416375968954205433e+01
2.301038659068838044e+01 5.168093523325181593e+01 2.722483144965174162e+01
2.383707677308699502e+01 5.104006108990281376e+01 2.916492615163875968e+01
2.521438469173682506e+01 5.188548147008561529e+01 3.375138511220391280e+01
2.401957415650026917e+01 5.294099089992714369e+01 3.551997916947306067e+01
2.367573325108970295e+01 5.200188073489130147e+01 3.874273662654809414e+01
2.472197603420936929e+01 5.307549024248218217e+01 4.080795548122304695e+01
2.425145732126416931e+01 5.082872977300220896e+01 4.333039530855743493e+01
2.515630206468351204e+01 5.125115285206539539e+01 4.569902498972834337e+01
2.309991444118695370e+01 5.269784444462652573e+01 5.018724052581502804e+01
2.334864326426160375e+01 5.148410024513883343e+01 5.130698688460014978e+01
2.513969174116079586e+01 5.228488945457977621e+01 5.335025253027999526e+01
2.469413306990740864e+01 5.173266954077026014e+01 5.725530256075636970e+01
2.411009866559599146e+01 5.100326381663461461e+01 6.137467208201994140e+01
2.499450112099326304e+01 5.102842902195548902e+01 6.365883717828506860e+01
2.374382596681783397e+01 5.238438898960673384e+01 6.739373124610598609e+01
2.323608458543142774e+01 5.103559187038432299e+01 7.100917530353041229e+01
2.477817567211697636e+01 5.075564988529657029e+01 7.561116530041684314e+01
2.492694427966172199e+01 5.097949974878167723e+01 7.765160643023962450e+01
2.511216786941321644e+01 5.252986562521382297e+01 7.905866058665282026e+01
2.314508703073320106e+01 5.299555107379922703e+01 8.117032588490717160e+01
2.458890103594336551e+01 5.063989514764835320e+01 8.516070300832478779e+01
2.469558733177492726e+01 5.119331029876739336e+01 8.666804234392758133e+01
2.508312926332641979e+01 5.110671243420546261e+01 9.057078823203207207e+01
2.287275956292767987e+01 5.164782746736100449e+01 9.165285879571415251e+01
2.342354032919722329e+01 5.114888344165399303e+01 9.407987264321168652e+01
2.366640468001647335e+01 5.060997214999260052e+01 9.777692670648757201e+01
2.442756148076492551e+01 5.414997155832430309e+01 9.052375383157174049e-01
2.318842823267738140e+01 5.439451905602618353e+01 3.601277935182956025e+00
2.279945060843793314e+01 5.532955973402302874e+01 5.203167729561696930e+00
2.510700731386868867e+01 5.328660587046653063e+01 9.523193310604094464e+00
2.324134430620195957e+01 5.424434888685749456e+01 1.139705350473588830e+01
2.522977299526741746e+01 5.443328595717740370e+01 1.347435627616340170e+01
2.278569192305523927e+01 5.487218636189697918e+01 1.914111731976644393e+01
2.460277774995093125e+01 5.428274297041612328e+01 2.091066789417092053e+01
2.357656896423919690e+01 5.427084431328447067e+01 2.425970494718655601e+01
2.476506633261077539e+01 5.329104176171139784e+01 2.584574212441001961e+01
2.507655176652974305e+01 5.315839814045973100e+01 3.375212722621390071e+01
2.469344023291869661e+01 5.521644445162829840e+01 3.796723903514099874e+01
2.491029893100208525e+01 5.339382682468855279e+01 4.450124401035785127e+01
2.508807714844539660e+01 5.519195865280782698e+01 4.685816452991900150e+01
2.404485837690693018e+01 5.431744979854777000e+01 5.389623926561323231e+01
2.381354828328350237e+01 5.541880632174872545e+01 5.915261310430742725e+01
2.498778260101290982e+01 5.455590326173383176e+01 6.142241533670272702e+01
2.430180393966773167e+01 5.335722747714327596e+01 6.371374277433172750e+01
2.396517898935767121e+01 5.347687085395907047e+01 6.639992500565580258e+01
2.452593330843993868e+01 5.434427062658087948e+01 7.029979999477960462e+01
2.455395155925599227e+01 5.346387665061735817e+01 7.265661912639075126e+01
2.301615776545210679e+01 5.544115854659109743e+01 7.813413968149890820e+01
2.426318637933039213e+01 5.515356585049649851e+01 7.868535524081366361e+01
2.342548228961643986e+01 5.536751408126849583e+01 8.128776643450493111e+01
2.442024266732867233e+01 5.346330268203149672e+01 8.403005112540586197e+01
2.368270236677356877e+01 5.464487712442139866e+01 8.769433979156691805e+01
2.426492566117316585e+01 5.446783519166257292e+01 9.762716867746674154e+01
2.414254799405851770e+01 5.476291815048249845e+01 9.958088894029654625e+01
2.519610574532684666e+01 5.667448797946823902e+01 1.691101527412475214e+00
2.355986876936992758e+01 5.706164454853471568e+01 7.359074026801371460e+00
2.513462294012341758e+01 5.720029860335021965e+01 8.967890909219489615e+00
2.516239773884663222e+01 5.732533139397797584e+01 1.587800702993007462e+01
2.424611761635159368e+01 5.744244051374233351e+01 1.997334698880332127e+01
2.391377383032467918e+01 5.778123176987872966e+01 2.166422943733367035e+01
2.328899942686071256e+01 5.710300194318352851e+01 2.656700158244287380e+01
2.475725355692797081e+01 5.659857784263145675e+01 2.802957520982998219e+01
2.290239532106699372e+01 5.621984424263553848e+01 3.131735746155125355e+01
2.296574650658880046e+01 5.801038710676077415e+01 3.338103808917849591e+01
2.516947142485359734e+01 5.674899761123577235e+01 3.749604877028039596e+01
2.519661134207369457e+01 5.680760171870092989e+01 3.949935558266444247e+01
2.525480505516683039e+01 5.677172633118343725e+01 4.499284635212855932e+01
2.302161407966492135e+01 5.599696568080598524e+01 4.982731849526720680e+01
2.423485886102861997e+01 5.622609336463245455e+01 5.338741538829113864e+01
2.295569711115648204e+01 5.668733603852717806e+01 5.626247232617692617e+01
2.400352473461830982e+01 5.689458592370198886e+01 6.135750557103673231e+01
2.383638510291157075e+01 5.818724627258028193e+01 6.422403412958831836e+01
2.277667020320945923e+01 5.644456504395151342e+01 6.751828449273020283e+01
2.368437836582711853e+01 5.692079348502252856e+01 6.964958404545780013e+01
2.389801216263619565e+01 5.653070808260903846e+01 7.169265021551173334e+01
2.450955581074948242e+01 5.655855367327471583e+01 7.466142487400784944e+01
2.526911061802964298e+01 5.627046469947598695e+01 7.726330079894280800e+01
2.372749344242318514e+01 5.713666499428761369e+01 7.878836630496795124e+01
2.366170247322396847e+01 5.690575850519390144e+01 8.394999470332268743e+01
2.359838169893185977e+01 5.789338503932987834e+01 8.625352337218738796e+01
2.504542859871845550e+01 5.811579118409069622e+01 8.978239471394469717e+01
2.413354911787792645e+01 5.815332723487239974e+01 9.506652557319760888e+01
2.426260843951986246e+01 5.731416549850799669e+01 9.960125569641638776e+01
2.341120478407061611e+01 6.052889205861708177e+01 2.113596704466447207e+00
2.406502793946676633e+01 5.910452176219065734e+01 3.620838710196061516e+00
2.408521545063975111e+01 5.862397709620439201e+01 7.501751294724890329e+00
2.363150042590732625e+01 6.013320343713571958e+01 7.976576016639325140e+00
2.511753121616615658e+01 5.999481996869123890e+01 1.115144446042335424e+01
2.349764299007787116e+01 5.923298083569377326e+01 1.379224475757975199e+01
2.432820852380730514e+01 6.054991374684416172e+01 1.765554542133152083e+01
2.288338274342828171e+01 5.832974830150116219e+01 1.854011270155582025e+01
2.317773780997486455e+01 6.003583631922261077e+01 2.217852755104251372e+01
2.474541772880992596e+01 5.954598657394638650e+01 2.333187178206059897e+01
2.315816361743360119e+01 5.984117173420225555e+01 2.678141986372922645e+01
2.441362223323986314e+01 5.981555317861363363e+01 2.834305693814868121e+01
2.283225888812125959e+01 5.907898790580146198e+01 3.103227808899134033e+01
2.367842861844104974e+01 5.904829854563725888e+01 3.452409853642921433e+01
2.354037624984328758e+01 5.961096312878386527e+01 4.000592446393190471e+01
2.314260766841903560e+01 5.955398545937228505e+01 4.257884717731719348e+01
2.344756164271271004e+01 5.952638304386567114e+01 4.486165535568345319e+01
2.449587557417235573e+01 6.031897544152501212e+01 4.666381379539262753e+01
2.294792194750867509e+01 6.003259863883819492e+01 5.135060412683458964e+01
2.346766265420923148e+01 6.050179943843229324e+01 5.329630800267489832e+01
2.371996713603369145e+01 6.015997961907254421e+01 6.029576766178193026e+01
2.449902099049504756e+01 5.929463194364691248e+01 6.124252490967343476e+01
2.468891689907123421e+01 5.959887094575025657e+01 6.334746940449495867e+01
2.462137727569749757e+01 5.912791875183197732e+01 7.066588051233820522e+01
2.505372775067098345e+01 5.919851127654929002e+01 7.304408137827901726e+01
2.436778752812321969e+01 5.886390002919866049e+01 7.532401195921768533e+01
2.388576322371830329e+01 6.051111262627778586e+01 7.750306880900389217e+01
2.357162648857399390e+01 6.023875780926400125e+01 7.941579650203487972e+01
2.464172085264054601e+01 5.937246428955330657e+01 8.260532323752639172e+01
2.491918309606554516e+01 5.960768713589327206e+01 8.563882282264036405e+01
2.504315082106706214e+01 6.013960479423525385e+01 8.681386499427199510e+01
2.495899645843116943e+01 5.899308607076817168e+01 9.065384273651710600e+01
2.374727819647345228e+01 6.018936724709019614e+01 9.400897035675502877e+01
2.500320251295494600e+01 5.870509340968802547e+01 9.792537959046305218e+01
2.364772798938466991e+01 5.957160086771256147e+01 9.999632684849521524e+01
2.439441978476898498e+01 6.139541776100764991e+01 1.970805592150781660e+00
2.464039273639718886e+01 6.188509272370600200e+01 3.469992350770190193e+00
2.296392867121694792e+01 6.249278254830022661e+01 9.028157902658474399e+00
2.403476004833488133e+01 6.230808495914671141e+01 1.192934978707024207e+01
2.517895945014044656e+01 6.127652816599029961e+01 1.296600620507862800e+01
2.388985097714139272e+01 6.310022662680169248e+01 1.655791580666239327e+01
2.317791505497063298e+01 6.282274157762771694e+01 2.002094943129041482e+01
2.510093725692238564e+01 6.314980160800936204e+01 2.391328268886774211e+01
2.487017910235788065e+01 6.184975602336319866e+01 2.635049846039565580e+01
2.303595702883816188e+01 6.189245264756169007e+01 3.212303878747949426e+01
2.356225656744811303e+01 6.310487507028311427e+01 3.439963864649408265e+01
2.353876514698968236e+01 6.319956674684839015e+01 3.615830458715581841e+01
2.384697616708276868e+01 6.108045359094484894e+01 3.908387735494426352e+01
2.404870271668144710e+01 6.146210032693583969e+01 4.249917059475505710e+01
2.420983258106653579e+01 6.306072314773590648e+01 4.364026921735701592e+01
2.526988148305866488e+01 6.204573774409161047e+01 4.727832019202292457e+01
2.481849724340439067e+01 6.261676012573926897e+01 4.999111634561015194e+01
2.525511898926689014e+01 6.198966388442761399e+01 5.160420484254808571e+01
2.328494532917189019e+01 6.119210227520224521e+01 5.341200457976982108e+01
2.480441500645165220e+01 6.305337000132625036e+01 5.714798384671575349e+01
2.290742351670268562e+01 6.109497171102908908e+01 5.849645734162989186e+01
2.372685517538107902e+01 6.248770139990229211e+01 6.161827752492142452e+01
2.358342241056354993e+01 6.204999002799876706e+01 6.396222429637415985e+01
2.332404697918422087e+01 6.186212941277553767e+01 6.773385012039494768e+01
2.316236597513379181e+01 6.259015158907516962e+01 6.896576198505090360e+01
2.456842284332131499e+01 6.085511222654155006e+01 7.201634855615034780e+01
2.422926859316988413e+01 6.267670066851920296e+01 7.472720608069604964e+01
2.405686981514647726e+01 6.187064730462695650e+01 7.619022792641307262e+01
2.356946574770730862e+01 6.181290842236904126e+01 8.326748371391391856e+01
2.398586436050948834e+01 6.122911160263186048e+01 8.524148326687345900e+01
2.428432598459704295e+01 6.094272384712241575e+01 8.743475491172846148e+01
2.491880208358747595e+01 6.201050760363057179e+01 8.860657523895996235e+01
2.365132751220124874e+01 6.102449276522284549e+01 9.121953893639013700e+01
2.451226176122291989e+01 6.091463442062935485e+01 9.948917458869202335e+01
2.340238522020121792e+01 6.548413420386938810e+01 1.831208318161781090e+00
2.468298972542402225e+01 6.463782953923721664e+01 2.661477230772058000e+00
2.462590129874492462e+01 6.404054996636050134e+01 5.278150301090079211e+00
2.385068648906474209e+01 6.553065471171663603e+01 9.542537512226667573e+00
2.511115160706349769e+01 6.436399500139896190e+01 1.239591008266841499e+01
2.406379946410268644e+01 6.511494379181492320e+01 1.304540974434402756e+01
2.302850623342236247e+01 6.422605933113189280e+01 1.988031570029616901e+01
2.385879810665421275e+01 6.415581671270899733e+01 2.461170600920376117e+01
2.439233346667904101e+01 6.549543527861192160e+01 3.515069460202168017e+01
2.379535431324747563e+01 6.353814389051613887e+01 3.772261989917258518e+01
2.363137120934819535e+01 6.527863432267135124e+01 3.924421079631644460e+01
2.357559608910764126e+01 6.440817980943990051e+01 4.164051206125625981e+01
2.483855216977757152e+01 6.420744637722989978e+01 4.473668778677050994e+01
2.311116076399806119e+01 6.549660896075251060e+01 4.981672030735595769e+01
2.467562126892628527e+01 6.483741567200983980e+01 5.266536757103773425e+01
2.377152668307571659e+01 6.561011514468127359e+01 5.609164694613810553e+01
2.295284181011973956e+01 6.397774668779870666e+01 5.983843169244381954e+01
2.519168229696554562e+01 6.451200081094512484e+01 6.118960351561872812e+01
2.424731308063896762e+01 6.418034780110667725e+01 6.438198021854397268e+01
2.388109057276671621e+01 6.328701789636691188e+01 6.586254487545380698e+01
2.387875962503330740e+01 6.483393209246996491e+01 7.029489292558787383e+01
2.473267207403616652e+01 6.346933499879843055e+01 7.207352413745840636e+01
2.285158929592315857e+01 6.328875303380871742e+01 7.524577331128340063e+01
2.453359914091531735e+01 6.403141046411843718e+01 7.623024096443366204e+01
2.356627264700697921e+01 6.565008019015876073e+01 8.055480332264998822e+01
2.440148345304038457e+01 6.363950461806011560e+01 8.458423062638928513e+01
2.388613955591200977e+01 6.472319395058933367e+01 8.761915665272452713e+01
2.307827016288321786e+01 6.333219297905002776e+01 9.338855363490341688e+01
2.419464959174876384e+01 6.375802419001347232e+01 9.587782459825827175e+01
2.363831150399646930e+01 6.523930258170351237e+01 9.627576783473347177e+01
2.350636772977336975e+01 6.506103268795142469e+01 9.949507526804299573e+01
2.313401428816489513e+01 6.636911924691864328e+01 1.193607548330977153e-02
2.491550690260650924e+01 6.815154113604775432e+01 5.047692230107947431e+00
2.527107611910515317e+01 6.685931959468332764e+01 6.301867568931463381e+00
2.387730847328039019e+01 6.800145523920024004e+01 1.264846383486055714e+01
2.282030751067880558e+01 6.754915810583055702e+01 1.369719390693715511e+01
2.466881276244101784e+01 6.714140975024683655e+01 1.600437150212975368e+01
2.278553522305840673e+01 6.732280523019457519e+01 1.934789287950675529e+01
2.478232909058019118e+01 6.661100163869036805e+01 2.360966936022745699e+01
2.354330720785014108e+01 6.704731035448956789e+01 2.780764360722130135e+01
2.352366520536767069e+01 6.631032164657830208e+01 3.413287804641951340e+01
2.435511580554622313e+01 6.578573593027495292e+01 3.617315709440084248e+01
2.411529547690889430e+01 6.744912164366486707e+01 3.994137891656358619e+01
2.528448569015360192e+01 6.584041215829412863e+01 4.087993028724764599e+01
2.507410851764707616e+01 6.659357557783326342e+01 4.539157358412144561e+01
2.444381617131553597e+01 6.733287031961387470e+01 4.755166541480149078e+01
2.424015968336611238e+01 6.789169585223859826e+01 4.926089523380847623e+01
2.460631849909644586e+01 6.658591175591877231e+01 5.173085172022887690e+01
2.353257013651856155e+01 6.658541991470529808e+01 5.558889615877513535e+01
2.487928641531399521e+01 6.631355819905374460e+01 5.708247765367632098e+01
2.328753506605073653e+01 6.640059886030861946e+01 5.989043351988738806e+01
2.383392004482121251e+01 6.790005552042219961e+01 6.353393393678978640e+01
2.432762358370127487e+01 6.630262564411643211e+01 6.828234251764165208e+01
2.498087607715252645e+01 6.754239142344225399e+01 6.831467917698529391e+01
2.445688196847870444e+01 6.764935220154345075e+01 7.247075623902226482e+01
2.424747719371527310e+01 6.809794517563318550e+01 7.591738499497418502e+01
2.515853738316276988e+01 6.732455374290316286e+01 7.933908765927854745e+01
2.487130976554151474e+01 6.787268700574496449e+01 8.104454596289816948e+01
2.488814031972248486e+01 6.732714824910294737e+01 8.511086090926860948e+01
2.344873264477967822e+01 6.770623195190776755e+01 8.804911750846152074e+01
2.351515181430622192e+01 6.827822452985083146e+01 9.052709242195284389e+01
2.414957853986753378e+01 6.658646823394771275e+01 9.120072141780325126e+01
2.281734291401525994e+01 6.628029556855533144e+01 9.900543139295034223e+01
2.493887411351701644e+01 6.887625338225640803e+01 1.420575153993985928e+00
2.501995766289932988e+01 6.846340140264280194e+01 4.832261194942066851e+00
2.488314485105056661e+01 6.853680278872960230e+01 5.568777710805782988e+00
2.473914944965704876e+01 6.862637737749787448e+01 9.368859969590525694e+00
2.290231047858724978e+01 6.910334595905447941e+01 1.398687331035719517e+01
2.434339318983080958e+01 6.973856178468894029e+01 1.637830503269992377e+01
2.387217877078344941e+01 6.987778355392224228e+01 1.809454861045638552e+01
2.470767554433319546e+01 6.845261030722313933e+01 2.423850772397857511e+01
2.450879860422311296e+01 6.968078524945603647e+01 2.548657284187596517e+01
2.384025644044154291e+01 6.888741483845724645e+01 2.875836405464291445e+01
2.411028831893922231e+01 6.929146747408981355e+01 3.056537923093366516e+01
2.315669612233794794e+01 7.045675516543842321e+01 3.579975720635150083e+01
2.320823122784069170e+01 7.054076256515291732e+01 3.979614897483907043e+01
2.297452118849252400e+01 6.971067093218898947e+01 4.201723142569599645e+01
2.328101359360096367e+01 6.906009747497647311e+01 4.462267691877686104e+01
2.420922816295533053e+01 6.840836915206605795e+01 4.671794676110391009e+01
2.479039737423461887e+01 6.908532957989389445e+01 5.052258609534271727e+01
2.509811857863337536e+01 7.012378557024970860e+01 5.209180984059599240e+01
2.507145360785760602e+01 6.891246850701820392e+01 5.801995594984477833e+01
2.287872057872630904e+01 7.021661168827766630e+01 6.007829504216623917e+01
2.277270382147691308e+01 6.950402247680716528e+01 6.323393218912855218e+01
2.418131987541600836e+01 6.868719273279988613e+01 6.488396714613516281e+01
2.403082168236684169e+01 6.833380312312468163e+01 6.940628363678108315e+01
2.282887972671046128e+01 6.932133693489295467e+01 7.186063741793866200e+01
2.491969663494636578e+01 6.907703547404290134e+01 7.819305424898954016e+01
2.358561620498593925e+01 6.859600639993369953e+01 7.938734958315141910e+01
2.414108118470650410e+01 6.968297922507375119e+01 8.477243008849015382e+01
2.466844946003991979e+01 7.043035753568825896e+01 8.777234986267266947e+01
2.278832650425819395e+01 6.853535256147802102e+01 9.023318308545432842e+01
2.524091112789380631e+01 6.929903137003982749e+01 9.267471088454477979e+01
2.377550179480800807e+01 6.909920788524466673e+01 9.633795606484021334e+01
2.499176779967709905e+01 6.982663853771882145e+01 9.998140130955756888e+01
2.396557798406353612e+01 7.127999482821974198e+01 2.305591324955846844e+00
2.348282173482348867e+01 7.180206003791019498e+01 6.302054252454746930e+00
2.279804565050552867e+01 7.155552477498673625e+01 7.621299170139106849e+00
2.439408188668914335e+01 7.221507657001041025e+01 1.127882648309872593e+01
2.462316312424580644e+01 7.090470820627548676e+01 1.603497522367111117e+01
2.511613263613082836e+01 7.321923314050576437e+01 1.870508383711325706e+01
