2.498668711379746910e+01 3.107278761461107486e+00 8.539227359375051662e+01
4.556296751543268186e+01 9.498652129982109216e+01 1.607853967663537276e+01
3.372703576973601347e+00 2.951482580206722517e+01 6.360849471344354100e+01
9.060143886323314177e+01 6.470008419396590682e+01 4.595882201404031520e+01
8.221754650923980989e+01 9.288711366334314334e+01 6.983046590237584894e+01
2.334792667556160239e+01 1.467802893277336906e+01 5.568137983101484778e+00
6.809034833348728455e+01 7.420228221838042870e+00 7.859048623971386860e+01
1.497216590607229847e+01 9.635585487470817156e+01 7.644362563398419752e+01
9.085941419889292092e+01 7.478104446968658614e+00 4.483237911674243037e+01
7.192401575540488068e+01 2.241163757174587801e+01 6.075261435936346288e+01
5.527513428812167717e+01 8.761053199602616814e+01 1.880040695259762629e+01
5.971950215832744213e+00 6.078358273132917589e+01 8.930838201122125497e+01
2.812956332762891520e+01 2.342864883007790411e+01 6.559274731372932266e+00
6.188622349762630392e+01 6.364307461208407091e+01 6.037932090222857084e+01
2.340238522020121792e+01 6.548413420386938810e+01 1.831208318161781090e+00
4.444504650759216702e+01 6.140531889938942811e+01 5.653849967765822271e+00
6.759682795596485505e+01 8.648198660606961141e+01 1.447702765208442877e+01
2.001286447026271276e+01 9.037212193537202154e+01 3.110199436481242419e+00
9.422525257154255485e+01 4.677868286270381759e+00 5.028370987107199142e+01
4.676661463991766965e+01 9.396616041503696692e+01 5.427505295430705701e+01
9.819887908085700445e+00 1.040228787121999510e+00 3.997872334078829226e+01
2.829745076632717016e+00 2.821243907847843602e+01 8.329791072657755535e+00
3.734546048491913695e+01 7.928058491300409116e+01 8.207139111248301333e+01
3.994419505369420165e+01 9.018759943357633801e+01 5.472512312697600834e+01
9.843017276705565166e+01 4.169672019956984599e+01 9.735187579800997071e+01
9.465308707335829297e+00 6.855023537977083947e+01 5.350189180470249539e+01
3.990995257681140274e+00 5.155882966167303039e+01 6.464095150295111125e+01
5.113548686143437294e+01 4.916883171655839213e-01 2.453143924821443633e+01
4.624990714927753288e+01 8.007639378131700880e+01 5.504276760252424516e+00
1.291626440632660433e+01 9.843631337025009032e+01 5.201244736069121899e+01
8.705300237922604367e+01 1.419595318908487513e+01 2.867713691250884978e+01
6.992886292803048320e+01 7.045774283582659336e+01 1.567247707773909937e+01
2.675305564954737392e+01 1.126462466042114130e+01 1.386795736177197647e+01
9.078404622937198098e+01 4.950730010123663760e+01 5.351214946327773703e+01
5.555586508272800472e+01 3.941095102882569279e+01 1.590648354489093741e+01
6.944380478864530915e+01 3.789654611083270908e+01 1.326313931115788947e+01
8.883927963752194046e+01 4.484029194582106470e+00 9.031795113577663869e+01
5.946669638327900742e+01 3.127017104442107964e+01 9.305641590290007059e+01
1.144585207698282048e+01 6.956351569706843918e+01 2.658577428042430135e+00
9.367411435113326945e+01 7.287778151820749883e+01 6.012090888744052819e+01
8.886798235677801472e+01 6.070986651598698813e+01 6.884399184258049331e+01
4.521515970976543031e+01 9.646468080969606262e+01 1.441596209011748542e+01
5.851091003060592044e+01 9.015628197396104326e+01 5.240703676985603465e+00
1.053631237388193931e+01 1.322758475979702908e+01 5.564750416360963214e+01
8.241687011139875452e+00 6.886161328525054159e+01 4.606908958218163264e+01
4.084959965410259741e+01 1.690062643868721537e+01 5.429967609092612690e+01
9.750002611361459515e+01 7.598480530811247036e+01 6.674874030448397377e+01
5.454404127811476144e+01 7.591845940423087313e+01 4.616834665223321821e+01
6.652657547130664284e+01 3.982677532718510349e+01 6.372644338383010165e+01
1.518382738615754413e+01 8.412540640300450434e+01 7.216095012513191875e+01
4.858609575742897846e+01 1.088138365232790328e+01 2.025580430438200796e+00
8.166292181455392551e+01 8.409345270741540901e+01 6.940686109182911423e+01
9.116239630239576286e+00 4.989907991407749321e+00 3.384994270652344994e+01
6.503012408823805046e+00 5.554284214253257801e+01 4.422198271381038381e+01
1.756687447489976250e+01 9.424353577694212447e+01 8.350337830103865144e+01
1.301379228348400474e+01 7.394032120257240592e+01 1.976210524741812691e+01
1.347977219368612367e+01 7.216588353638645970e+01 3.433750825065278178e+01
8.008641907255869796e+01 1.503570292961663490e+01 2.292357628733854291e+00
9.382648644648541847e+01 4.006477585936411856e+01 2.606985489474444861e+01
5.047480992298246605e+01 7.187146708551875918e+01 3.547693967848155694e+01
5.500690147344903380e+01 7.257143336348327978e+01 5.500605532433628753e+01
2.525947987978327536e+00 5.163860435666612148e+01 6.944161213446578529e+01
4.550882298505341339e+01 2.908092854006111239e+01 1.847280033678478972e+01
9.249006459282988146e+01 5.202284383742276219e+01 6.950979630199942960e+01
1.861381409783080443e+01 3.130127920157407218e+01 3.771832695307200112e+01
8.851259341962112615e+01 4.061483875435752822e+01 2.623648006683500000e+01
7.098770002182988037e+01 2.813873266292188369e+00 3.569942189265597676e+01
1.356660919405318033e+01 9.263186448642628079e+01 7.029534239223266923e+01
1.712576560361668143e+01 4.301022717074239665e+01 5.671848909224467405e+01
6.377475059477095698e+01 4.896385627636809090e+01 1.049621531371230887e+01
7.528087577874811132e+01 4.877280887259445308e+01 1.499588979774558695e+01
4.008501693702458368e+01 7.874271182960068671e+00 5.217653656470451295e+01
4.984357294050655440e+01 2.950013455399329487e+01 8.724965393666666102e+01
5.533139214544142703e+01 4.303620211369671011e+01 7.524269567791832003e+01
4.197285892520766737e+01 2.534416809256200409e+01 4.252919007671435025e+01
6.367265158277824355e+00 6.929930674974058036e+01 2.630862012384626070e+01
8.677857756990113103e+01 1.873459575950430178e+01 8.936130341430923352e+01
7.172168466970651934e+01 1.644371737676370060e+01 5.304810967497657259e+01
2.700052446341648604e+01 1.457751013074492974e+01 7.960735519714312147e+01
2.946477742964982482e+01 8.921690406784212257e+01 9.249071255711866968e+01
8.892449603226882004e+01 7.179981658847638926e+01 3.597289585469760453e+01
6.534914117970338054e+01 9.446890431924680342e+01 6.634571998860077713e+01
7.115981672249321832e+01 6.637234880901196732e+01 7.674783192279619470e+01
4.769350795239042640e+01 8.878002961037589458e+00 1.870015058854397338e+01
5.707881479738606600e+01 1.207217741669238720e+01 1.891909414694204017e+01
4.102348350756152939e+01 8.187449965746712621e+01 5.631806339972108333e+01
5.144772243421758162e+01 4.072016415966677982e+01 5.540357173276073866e+01
8.996517033276688835e+01 1.164632541619161543e+01 1.631817055141207007e+01
5.913089121291564965e+01 7.728450205880122326e+00 3.749599388927554600e+01
5.006247969973043332e+00 6.412443338597086040e+01 7.012018154040529794e+01
6.903729073048010889e+01 6.978902366866346085e+01 9.386482207521481769e+01
2.825083991398991046e+01 1.171439416871613659e+01 7.950181421638984602e+01
8.490340615595022200e+01 5.610491765487142146e+01 1.382908616624592923e+01
9.658347493706720854e+00 6.021101349123176050e+01 9.820628084979821537e+00
7.237975563062109075e+01 5.892133248359664321e+01 9.039674457652746753e+01
7.994162538470220625e+01 7.363483160223604784e+01 2.808747381854663772e+01
7.300943406679229497e+01 1.255704875644766361e+01 3.706759593116601081e+01
4.743053075785419459e+00 3.386036750262292117e+01 1.411867841262725065e+01
6.418975054901432031e+01 6.277959173150750871e+01 6.892469676697676562e+01
2.488199048172413796e+01 3.752704179939679818e+01 8.264076221121008814e+00
7.844630117136752290e+01 9.214002721548749264e+01 7.288146861282963584e+01
1.435415612259959239e+01 6.516650668827694837e+00 2.169874053109884926e+01
1.422420890020207374e+01 5.194101791228094811e+01 1.704171162401856421e+01
3.346040041041045043e+01 6.063082100442775157e+01 4.994903467133057973e+01
3.516120048220775374e+01 4.346057938065386139e+01 3.009218336812234895e+01
7.328137082823661785e+01 3.742395289545368087e+01 3.636347539262749962e+01
8.039835815054597390e+01 4.905800590539123363e+01 3.390486200978721598e+01
2.315566585531020394e+01 3.930442166010690386e+01 1.956984161075211404e+01
5.897475095647587295e+01 6.125732955507784538e+01 9.371910012350069508e+01
9.115923015022117681e+01 5.624177675596617831e+01 1.638573001701719534e+01
9.704021520513227017e+01 8.875115342672764029e+01 4.914465847166782808e+00
9.789230643449114666e+01 5.059295442923887975e+01 7.337140338931536121e+01
8.986699404941276725e+01 7.495891929943657317e+01 1.041828530723831747e+00
2.943595634875340039e-01 7.874733726645257548e+01 7.486143301077470369e+01
2.264185244000571640e+00 1.436712851456467543e+00 5.022629852788683991e+01
7.061969485291363924e+00 2.051815125949234542e+01 2.703744219342985033e+01
7.987975359731581193e+01 8.823915160489822540e+01 9.551200985033236179e+01
7.728420383043497566e+01 9.186177765001934503e+00 7.570639819238952839e+01
4.690725927071587620e+01 3.676864677417673022e+01 7.737793547678539774e+00
9.425835996979303388e+01 6.339976977446607265e+01 8.672894054624647708e+01
9.214715191912949876e+01 9.582472798791859248e+01 7.872755875783059309e+01
6.947978006165132570e+01 1.394168684753220866e+01 9.126708276768214034e+01
1.264837809767138666e+00 8.604552245287476353e+01 1.249751335405204777e+01
7.061583504003564826e+01 5.362972336090271597e+01 8.765757780147329470e+01
2.788198708603123421e+01 3.402824370259168774e+01 7.743863241274459597e+01
4.244095572130299843e+01 9.139355342152146022e+01 9.577902780171966413e+01
8.807587632324690219e+01 4.636194840724965616e+01 1.538358959277182869e+01
6.076536589712097225e+01 9.523074324592303697e+01 4.787049891552407388e+01
2.823702239964229932e+01 8.031046186929067687e+01 6.123152698488143031e+00
9.104776860613232259e+01 4.686342241950220000e+01 2.517761776166666010e+01
9.319189694349961428e+01 8.537657938109826716e+01 7.443265755911974679e+01
9.373671150770796601e+01 1.974400876982354092e+01 3.750006192685697215e+01
1.896533307634139476e+01 3.414764550393459785e+01 8.372707008774334270e+01
5.595211765405644400e+01 6.939985268509506966e+01 1.729376278779038856e+01
2.438471592885993466e+00 9.338252318752819292e+01 2.966905034791671625e+01
3.976269317443931328e+01 4.538892814405722476e+01 2.998281261400271802e+01
9.427895369674311610e+01 1.246062476291191956e+01 2.983460755232582073e+01
1.558349687567110919e+01 3.052706070647381864e+01 2.706738032720071985e+01
2.623525699201548633e+01 8.858428475168875593e+01 4.346863525346078561e+00
2.687713362307455611e+01 4.946503737846141391e+00 7.679700190457646158e+01
3.953486122917306034e+01 6.269122194417421667e+01 9.424858351447328175e+01
5.831952023192348378e+01 9.839185975930205075e+01 3.377172559117764905e+01
9.530472363506481415e+00 7.190505127893374038e+01 1.740683821527684216e+01
7.599892292666386595e+01 4.389601843828971894e+00 8.826511339150614788e+01
5.631764092508622355e+01 2.669162335306210920e+01 6.032953081527137051e+00
4.688467899071627443e+01 3.650921905013411362e+01 8.354739140058943292e+01
5.562934552768219731e+01 5.590191423617432065e+01 6.680377486365583195e+01
1.565588515339397802e+01 1.678314847241876251e+01 2.303929218329857775e+01
9.680391206604758736e+01 7.034713637150035836e+00 5.952334945845186809e+01
9.834074795791077861e+01 3.461828420926609340e+01 5.514547265977005708e+01
7.048234712399762714e+01 3.726958873741101996e+01 2.302931080799771735e+01
3.183307052863979436e+01 5.795953315841430964e+01 1.716545007256128486e+01
1.447010978108619383e+01 2.051942490717235756e+01 7.115298787372086053e+01
5.568043661998696336e+01 7.029005404707014293e+01 8.205520207145299949e+00
4.606678100511315677e+01 2.928662304758417179e+01 7.173891434706204961e+01
2.775447098162026194e+01 5.603244240363171258e+01 9.530253428786716441e+00
5.314959339392397908e+01 4.708173575365100305e+01 9.356236764697730734e+01
8.891176379384914696e+01 9.239756568589564267e+01 2.664590511969002762e+01
4.494063018867349513e+01 9.647251689109074846e+01 5.477864493717342498e+01
6.320759128613899946e+01 6.946181787954708753e+00 9.922257908929992709e+01
3.004594811564908952e+01 8.044931562939009950e+01 5.172317169641916479e+01
5.823362454153901524e+00 7.580721730976684114e+01 2.777195122520277337e+01
7.638683777001857322e+01 3.345712782056509127e+00 3.862277002790337477e+00
6.705707569066477447e+01 3.735802099166804169e+01 3.731231908342036263e+01
3.363657222983341910e+01 2.184991768253176048e+01 2.876263344157737833e+01
4.285464594782558834e+01 5.188140193517932630e+01 5.436422226887505360e+01
5.836871865780926072e+01 7.810660861302154956e+01 3.576443786710613892e+01
2.716785795398190118e+01 3.952414602842665658e+01 3.523969917501240445e+01
7.923088526711387658e+01 5.697746411099819852e+01 1.714688835139237710e+01
6.657449695298902270e+01 3.840910169519035122e+01 6.021448600718098731e+01
2.971487955470755082e+01 2.593163356893950322e+01 5.455102992880829049e+01
2.837594380559157514e+01 5.348084746433335113e+01 3.702895178966533507e+01
9.772383352086680475e+01 4.936134152407559839e+01 9.586168889998512554e+01
5.193026825970628124e+01 6.925947805409707314e+01 5.222828495120234038e+01
2.670646709216375569e+01 6.545954726861322115e+01 5.034623497606871467e+01
7.309541701632750232e+01 2.168934326487936914e+01 1.675173424110085563e+01
7.505995636577388552e+01 2.577076558069073542e+01 5.422610386290014617e+01
1.745470162999285435e+01 8.271672963742598483e+01 9.644206616179378955e+01
9.138124509921482286e+01 3.427521644838238402e+00 2.094056600841935989e+01
6.745731676116551512e+01 8.411336813150018088e+01 4.703444383647310190e+01
6.777685128846800922e+01 7.474434036060840114e+00 1.727365513557661458e+01
6.841918638540157360e+01 2.585140931120487551e+01 2.623355160533414931e+01
1.774799098983328349e+01 4.166140420476547490e+01 7.358666711005169248e+01
3.824808973844214677e+01 9.989211286192659145e+01 9.123537578436921081e+01
5.458278670948264732e+01 9.169597089586099514e+01 2.197259238217186095e+01
8.296283503817004146e+01 8.214519423569225864e+01 8.517668162304413215e+01
6.212796371702206244e+01 2.065669599026442782e+01 3.806730484584360852e+01
1.981007088159005747e+01 7.058614548264306165e+01 1.584350761711129607e+01
8.281012090600736997e+01 4.254699775634379932e+01 6.539776244653263859e+01
2.261136486799747303e+01 6.158754583599890253e+01 3.994551936735457609e+00
6.543966714460890444e+01 4.644891999284666184e+01 7.141717420281007378e+01
7.775087098526589635e-01 7.830734803807575872e+01 4.373654584510035193e+01
2.100673802763009945e+01 8.333733365593703013e+01 9.242728035924352525e+01
6.595180880959983227e+00 6.933650671145752398e+00 3.726842170736293980e+01
3.518367151572297757e+01 6.139823742602415990e+01 1.375370140439955335e+01
1.274371980193167442e+00 8.350360041986725435e+00 8.541087296915383931e+00
1.156412438463394476e+00 9.197907018797864964e+01 7.241518233503562385e+01
9.154248239536157428e+01 6.499261499770244654e+01 9.213241725988953590e+01
6.803133311777568792e+01 5.823476053735476654e+01 3.640949008213267035e+01
9.455246124545956832e+01 6.894249799886877383e+01 8.966785895170414022e+00
8.614016268888272521e+01 9.107260127294981089e+01 7.648442890949229422e+01
9.791610062183799812e+01 4.412387164531592987e+01 8.123923859918667745e+01
1.827309563556806893e+01 6.039071562673794347e+01 1.819456246507555885e+00
4.055362727475243645e+01 4.689998596248069163e+01 1.416625644557838370e+01
4.903801315382034431e+01 1.566305411549273607e+00 5.286651848137935872e+00
9.979444070323228289e+01 9.765462136620671174e+01 4.254157595150591931e+01
1.083103272997376632e+00 6.396152625958128368e+01 1.042430153363373968e+01
8.073189587250107024e+01 5.691007386145933111e+01 4.071832972259996808e+01
2.458402124969807545e+01 2.179973881233817679e+01 5.030427690895249526e+01
2.092049820444812269e+01 3.766341429395524187e+01 1.401259725642395360e+01
1.986066239449420934e+01 6.057150960474508850e+01 5.996489610983250884e+01
7.865193423437899511e+00 4.558645418578070263e+01 6.493606618536391295e+01
6.283139659848843905e+01 2.974007902202113751e+00 7.579259976556884659e+00
5.751947369672726040e+01 8.300496856827453485e+01 6.275411034570939961e+01
5.858206160642934890e+01 4.064840916687857231e+01 5.338075628251812788e+01
4.831104671126308148e+01 4.070618540051743395e+01 2.142117146478431522e+01
9.404428854491550283e+01 7.646515751026996099e+01 2.425911799936566382e+01
9.888030444664381946e+01 9.018057866562301683e+00 3.859403666091650820e+01
6.693284526427795811e+01 9.810379652204369449e+01 9.670974347031288687e+01
5.490086379027530228e+01 6.915774131979044625e+01 6.937119922147920192e+01
5.168405651111052101e+00 1.606144454172753200e+00 2.237663751102025955e+01
6.424786884277699528e+01 5.678235013821952393e+00 9.766483616361784925e+01
8.753960664725786955e+01 3.861194215324493939e+01 3.624372572141989224e+01
9.481945586822375560e+01 7.698252357772274479e+01 2.941537629991005787e+01
8.964273782837739901e+00 1.642343863731847620e+01 2.558602495054828196e+01
7.806586379472165049e+01 8.861514874804304043e+01 9.286978618206343583e+01
8.063967187731789465e+01 8.268985984170777215e+01 2.002859124509267374e+01
7.033177925852454848e+01 7.682039832912541044e+01 1.590439300139285805e+01
1.269462779220085125e+01 3.425908085202814846e+01 6.851107505608396764e+01
3.238136068003261148e+00 5.231777014920044877e+01 8.525820445143850179e+01
6.357272976685383270e+01 3.372991190882059698e+01 3.279501041070729173e+01
2.675718127125484713e+01 4.420157138169555111e+01 2.031250649997007329e+00
9.658338225577114144e+01 1.766237261074932263e+01 1.497452519401036852e+01
7.716087366407677450e+01 8.214015915346361396e+01 3.466274575813949355e+01
2.069804749318541326e+01 7.287562014746465877e+01 4.912030151956513180e+01
8.537246346201109759e+01 9.927857983554071097e+01 7.252611339701039128e+01
1.507247527095776363e+01 6.440863799918092525e+01 3.933927802639492910e+01
3.262399006456643491e+01 1.684929732381842271e+01 9.305067194652168894e+01
8.148954859916392479e+01 2.465579219709870173e+01 5.983537749768712644e+01
9.156918264255000395e+01 7.787409366134194499e+01 9.371400321783448817e+01
1.427865746678978986e+01 9.382336251953469741e+01 5.222004575037554019e+01
5.541492061974844319e+01 1.821407782125983310e+00 1.301261193001267458e+01
1.594986793319087504e+01 3.205289116598471821e+01 4.277821583848341191e+01
2.103076009240817257e+01 7.305000057240714284e+01 9.874977664090599205e+01
2.574445783783976083e+01 1.327075194852194073e+01 5.708960783950509921e+01
3.046114388403942286e+01 4.362301636927136883e+01 4.947325397084875931e+01
5.300954190396691956e+01 7.828919030819140801e+01 3.654692316299078669e+01
3.674416036210692571e+00 1.041628038249443655e+01 7.379113842793842082e+01
6.691303255511449777e+00 5.268662500127302195e+01 7.530990175419130139e+01
5.866178163403922952e+00 6.808856749689817889e+01 5.055725308701764220e+01
2.689925280616286685e+01 2.896948257616612921e+01 1.780849821943025901e+01
5.925162969785050393e+01 7.145990296015947152e+00 7.179602182473108485e+01
1.203393632599400931e+01 5.967573770120434773e+01 5.178436597972805089e+01
3.889042486760794048e+01 1.180255633324646070e+01 3.437460565251917188e+01
3.350207845596739986e+01 6.852133866487172043e+01 5.608148407982147887e+01
1.272062228764604441e+01 2.462232001699508999e+01 3.606729635293537406e+00
6.436553218729905268e+01 9.364423987104130731e+01 8.291931475376586036e+01
7.586577431426293572e+01 4.116366611545166165e+01 2.531461899851621311e+01
6.650952106957582544e+01 9.462233691250396816e+01 7.170792020012765988e+01
5.000898181729760239e+01 9.376768506480015475e+00 8.281583802681161899e+01
8.107209965713096267e+01 5.496946712594904483e+01 3.945587935146820513e+01
5.687052746511207602e+01 9.834598542472677707e+01 2.786365870371572129e+01
2.210305477670362251e+01 7.040350439764256407e+01 6.728075588254024808e+01
4.878283902606482769e+01 3.969917471208547965e+01 2.483150430706718836e+01
5.706664780724217678e+01 5.101847702479345514e+01 4.823911282185445515e+01
1.350113213406609702e+01 3.526868914600578364e+01 3.119128879240100716e+01
3.436065119729214690e+00 3.818417941651546244e+01 2.882862452944156928e+01
9.424092995761760960e+01 4.995207733605295886e+01 5.317109115914971795e+01
4.472112294241440367e+01 9.151804732930686725e+01 5.285075970321054939e+01
8.073183302003596395e+01 5.938616718851324094e+01 8.573800812598946663e+01
3.324615098395682367e+01 3.986979253740173590e+01 1.312222222876846534e+00
8.920614330020226745e-01 4.957588594279342686e+01 6.034277404928101163e+00
8.300940072198240216e+01 5.852642090458037849e+00 4.419300669861958575e-01
3.244092126498221429e+00 4.433021111923418189e+00 4.387420002105971406e+01
8.927547064972374358e+01 6.995371060952987818e+01 4.756478577490449311e+01
1.869818450129442411e+01 1.027944106478424402e+01 8.198727622110365587e+01
1.803075400860624100e+01 7.505374420195995810e+01 6.208461770416121794e+01
5.772523005376704930e+01 8.056778174952852112e+01 6.506705410765894726e+01
3.892541787159475852e-01 6.932880721516789890e+01 6.606349870316803674e+01
3.102056954827068225e+01 8.158141402947570953e+00 4.050703283514000219e+01
3.075021437263463042e+01 8.508431267689748267e+01 9.294720475706364482e+01
2.958919763768735933e+01 3.032919214196660818e+01 3.558891546408680995e+01
6.669589534791948893e+01 1.276918421449960661e+01 4.824463706300201693e+01
2.406722286972178182e+01 7.209700832720162111e+01 6.514684125769010237e+00
7.987741591595053592e+01 3.494351505173346339e+01 1.229210936485472061e+01
5.432036505868607890e+01 9.166817457088352228e+01 3.848924818008906357e+01
7.264334300498717312e+01 3.794783838369761497e+01 1.722145846860908591e+01
2.084430269090882248e+01 9.413666370750736689e+01 5.809950009587733177e+01
3.381128259545504022e+01 4.810738092648071529e+01 7.479547003126553761e+01
6.654387905333285858e+01 4.077363447242044359e+00 7.043606804257561294e+01
4.161024700266472109e+01 8.011095362421249888e+01 3.171132255489628093e+01
6.529552840261045787e+01 6.064612213560454279e+01 7.550844106342788109e+01
6.180190372106498131e+00 1.361429693939755126e+01 3.696625527252355425e+01
2.413236655749562232e+01 9.444903141221871579e+00 6.729753211227540888e+00
5.429899453483520944e+01 3.696480837414868148e+01 8.389536799488557506e+01
2.627292726311003435e+01 3.211029259777127010e+01 2.115064952314656921e+01
6.238493560370791613e+01 8.628537685412628377e+01 5.395739024949307350e+01
1.487203174044227083e+01 9.300594340841308849e+01 6.312325667953483332e+01
2.061565563232103937e+00 4.397225964704662715e+01 3.460825127187914063e+01
6.084645205298687642e+01 2.068952714374468016e+01 3.933602439427437503e+01
1.762920282954576479e+01 3.880232065102597971e+01 4.735346802518086662e+01
4.736217697802803883e+01 4.597325182587043457e+01 1.152006070728970322e+01
7.405550182753457022e+01 8.525244048718117540e+01 9.993900124577582744e+01
6.174955390430093871e+01 1.901913597562193559e+01 7.238158299579903598e+01
9.458540571165963584e+00 1.711682190622346766e+01 1.212505569859396815e+01
5.796243344916385354e+01 6.680188655970225398e+01 6.156410026060494545e+01
2.023429110354221194e+01 4.374091690885630612e+01 2.489559631436959464e+01
7.208098283458343758e+01 7.531230332601309385e+01 8.447841697012911766e+01
1.288606977371903284e+01 9.935814653264098695e+01 9.537100956624452408e+01
5.825210383400356307e+01 1.121370024350265560e+00 1.692900631787320620e+01
4.473941715764784277e+01 2.520700451000222841e+01 4.207615596164365002e+01
9.760790197920343303e+01 3.414420394105484036e+01 1.242815789432659734e+01
9.140683171934693974e+01 6.511516486835084550e+01 8.419986339340658787e+01
8.697073618760869351e+01 9.659291069843949629e+01 9.637556444634188324e+01
5.660287291868618809e+01 6.794288822033183806e+01 3.630971888171430351e+01
4.629051900697972144e+01 1.822434631625977630e+01 3.327359723898440080e+01
7.228483585712267256e+01 1.115232493774384004e+01 4.325870634127792158e+01
8.552292825305872981e+00 6.859360185671736332e+00 5.289605571038301690e+01
2.429070199336721458e+01 8.288272625250235137e+01 3.669650601554791081e+01
1.333296430722107395e+01 7.168376985377977739e+00 7.358974626034459732e+01
9.947938437218435581e+01 3.260222007213624806e+01 9.979892391054873713e+01
2.664321346843688687e+01 2.362900891154406935e+01 3.211955319401219811e+01
2.367183978363184238e+01 1.640758380648279413e+01 7.813100233128967886e+01
3.002545083012998361e+01 5.461208908249648886e+00 9.546303611233723529e+01
2.801962803688540227e+00 6.485389590143006444e+01 3.744765011526614273e+01
7.162547653395419900e+01 4.533577488493042296e+01 7.756926085757000067e+01
6.570813659091068182e-01 5.029101849724898443e+01 7.506255594428834854e+01
9.570447796439842136e+01 4.644093336756245094e+01 1.503166571743225255e+01
1.114565720070423893e+01 3.690022277297902775e+01 2.336051037575189682e+01
6.199953915079992051e-01 1.695689357005198872e+01 5.974373558543749851e+01
9.092138001877135878e+01 3.683400220326569041e+01 7.932851251507972279e+01
5.074145921253310121e+01 6.594958045652811052e+01 9.291325748098097392e+01
4.059840601236148672e+01 3.420198681872999913e+01 5.923022916685449957e+01
8.376790282371926466e-01 1.097389152198359241e+01 8.824727568267142885e+00
8.843022546507494752e+00 2.058032763287565103e+01 1.601303405752280185e+01
7.336209290694402796e+01 4.489970583215752242e+01 7.559692371987499371e+01
2.077913931328656538e+00 1.267752887659874261e+01 3.117557404215126482e+01
1.652330368418855144e+01 4.749208515773413097e+01 4.522704198498721695e+01
8.968706813849665593e+01 8.890229739990419944e+01 3.499283983416172816e+01
3.387774289589925303e+01 8.997206085712605272e+01 1.781831917070808569e+00
1.440999781574603400e+00 4.596525641793248695e+01 9.636129887012947393e+01
1.147011906425415795e+01 6.317264688352102553e+01 8.825841652745974386e+01
7.074745092418983461e+01 1.987416475117942394e+00 8.960364290639118678e+01
4.245020625431907746e+01 2.657918021135733255e+01 2.202953608338739144e+01
1.425074196066623600e+01 2.743468244672951784e+01 4.820034022690425957e+01
9.430192123508863489e+00 5.185944546958879187e+01 7.635299022696648308e+01
5.219498731142246939e-01 1.571547516385223275e+01 5.364555643185360623e+01
6.670891138838136669e+01 7.649689400342572299e+01 7.683299520236968760e+01
8.584501445035094491e+01 7.863738539888679213e+01 8.682236684327210696e+01
7.878437460730445707e+01 4.764629411199925357e+01 9.286218266430952895e+01
7.034339735992885778e+01 7.080676003424410681e+01 4.908201658174276361e+01
7.259058699227918510e+01 6.995433747619607345e+01 1.631854358800126548e+01
6.740700245009807645e+01 6.457285438424658253e+01 7.560172730665004615e+00
5.544691965418164870e+01 6.014677605885638911e+01 9.216082078572016201e+01
4.326444704836384147e+01 1.910848010646092376e+01 2.413859024909132955e+01
8.123082625408972035e+01 5.248043595653007287e+01 5.855696638031875523e+01
6.061776090239649051e+01 6.015545312909655706e+01 4.523736124327880503e+01
8.992653243482510561e+01 9.479421646965703019e+01 9.972730429215136638e+00
2.117738214656448292e+01 4.238906639365866624e+01 6.997883633282168603e+01
9.074074142266823628e+01 6.035995704642596849e+01 5.408919333423092013e+01
7.969588048802692981e+01 2.656510023151674815e+01 7.427031514007056501e+01
8.124703378137231979e+00 2.576369689188409140e+01 4.179125111855659469e+01
9.660554324701654139e+01 4.545059490055511731e+01 7.119742083759200568e+01
2.076778986384661962e+01 7.034369820796383976e+01 2.054805202757703597e+01
7.666026716987968825e+01 6.603528768502255275e+01 9.320263535889414186e+01
7.766115197776338164e+01 3.509015699443887115e+01 5.053072651644614410e+01
9.475475274261079051e+01 5.905369001586193889e+01 4.552824129717547663e+01
2.942492583320867183e+01 9.273535786015708027e+01 7.889949080537266468e+01
6.131937688314352641e+01 5.764693207675033193e+01 1.100409030635650609e+01
4.239386458199702190e+01 4.201281001345969202e+01 6.114673230867371245e+01
2.478923014163134653e+01 8.441696000481385909e+01 4.800143200305996061e+01
3.218322796736713087e+01 5.504247950582359294e+01 4.232185626562261405e+01
8.215933865371411571e+01 7.003934453498888502e+01 5.299883304122518268e+01
4.357343620783048266e+01 5.337145903571119021e+01 1.644097479740492673e+01
7.038006748211287800e+01 2.133946644599819109e+01 7.463270701809243235e+00
9.721273636133398455e+00 3.534991907765738972e+01 2.849438148752713218e+01
9.506197872132973714e+01 3.642641142413671673e+01 8.869536378575851643e+01
2.373530911841957902e+01 8.585663833703621606e+01 5.316983213263604569e+00
7.914228238630306578e+01 8.539143786126417979e+01 4.577777415002428540e+01
7.692582618677467110e+01 8.974993950555314370e+01 6.782076623787345682e+01
2.947755094131262510e+01 8.291196426792701857e+01 6.321455489046372378e+01
3.888361021432976372e+01 4.449165423716056011e+01 7.761350187738902662e+01
9.395764437582350581e+01 9.877750318263120732e+01 1.802745003569593507e+01
3.304961932238695965e+01 2.242385627228179601e+01 8.887845995368525820e+00
6.121320622125804078e+01 2.294397044214212400e+01 2.445378005689303791e+01
3.531276879095952381e+01 3.329377453448446289e+01 9.083353033813723698e+01
4.426543455712808139e+01 6.843401070361457528e+01 5.435241392385893278e+01
7.810737307139311270e+01 7.830024622977182958e+01 6.725447941057184664e+01
9.394846102514267727e+01 7.161788288385353951e+01 3.967004801207716014e+01
5.615487845413189660e+01 4.527719105535794597e+01 4.307110573511933893e+01
2.403271491036688090e+01 3.623410317275643422e+01 1.792540563852637092e+01
7.123374361336762206e+01 3.627859813533892464e+01 6.795572398649927948e+01
5.345633537935049162e+01 8.286045188999055711e+01 9.097499285475065278e+01
5.589793624075048939e+01 7.042620197003071780e+01 6.485082718957228565e+01
7.614336602927363629e+01 8.533143897347684970e+01 1.368852829726323606e+01
4.128841013532144899e+01 4.415898690741120447e+01 5.422599535996126718e+01
4.436714373345614604e+01 1.363947625690808962e+00 2.008109376743668761e+01
5.040755606731038796e+01 8.545353218100079573e+01 6.998659447222074448e+01
1.834251922743717245e+01 7.152321251620658416e+01 1.826178226899211055e+00
6.919013846780356403e+01 9.682314937722119907e+01 8.919657481937643695e+01
5.878582051045232504e+01 1.628575606861811664e+01 9.870543628534420577e+01
6.214144824468047545e+01 3.342371377515419795e+01 9.684300087273702218e+01
7.407897818595462525e+01 8.923967646401645482e+01 9.364506449474741601e+01
4.289535335997531718e+01 8.088992689693299099e+01 7.812626295477363669e+01
7.702132194108004626e+01 3.909073860861477101e+01 6.396598016216599092e+01
2.637977349738768140e+01 1.736308953184429882e+01 1.875747256577102817e+01
9.999620173413052271e+01 2.269903378147498785e+01 3.572537063542310420e+01
5.270879561968651217e+01 1.181581023573966505e+01 2.247387208660622804e+00
3.819902896945986015e+01 8.322262307015438410e+01 9.451356095678382019e+01
5.221408564411218833e+01 1.336898616311030707e+01 1.069727730649382380e+01
1.440834632058935938e+01 4.054842355486295702e+01 9.137135638194121157e+01
4.686500890318008317e+01 3.454419056496774942e+01 2.230510579957055839e+01
3.560633254933291880e+01 1.631826848584172485e+00 5.140010501234348439e+00
2.250983059186473234e+00 5.408946657301561345e+01 3.923954069004920342e+01
5.159936594289772671e+01 5.089739219514335389e+01 1.589385786640269416e+01
9.376860118959660895e+01 2.019298401740455873e+01 1.149364132194741117e+01
2.358853002038245705e+01 4.909492838350967503e+01 4.990241542641060590e+01
9.557882097665502386e+01 8.249714463110515794e+01 3.990394903650127389e+01
3.843139714100831839e+01 6.320734831022588907e+01 3.168685641874438019e+01
9.999842159175645406e+01 5.387151429686421977e+01 5.643082852739116362e+01
8.057257278778136822e+01 3.742055192474935410e+01 9.238478573502821689e+01
2.804926869378054732e+01 2.038415757494935576e+01 2.125534135298140370e+01
2.695973071731189208e+01 2.513977166994545343e+01 8.313291671714412701e+01
8.499447218294872641e+01 8.397250543739554018e+01 1.532379386283445655e+01
5.230403088995343808e+01 2.747061312773846353e+01 1.557297644541678672e+01
8.318068314466806612e+01 9.920568975914379450e+01 4.190060008087569088e+01
6.730560150701114708e+01 4.015270570420533858e+01 3.962088007491604458e+01
5.058650395200376693e+01 7.977107356546657968e+01 9.338632678867459447e+01
6.792511334434863102e+01 9.473959969705846618e+01 7.373436513761984656e+01
4.841397281906609606e+01 5.927082440735193103e+01 5.553643537566688160e+00
3.900512739755269820e+01 2.440299858059979954e+00 3.346938842179575602e+01
1.059731207908200012e+01 1.164646677078801140e+01 2.290170477777947511e+01
9.821966460900399909e+01 1.439717323141531580e+01 4.790349448087959416e+01
1.131808384818919677e+01 9.518227238459961370e+01 2.491576151053048704e+01
5.503055107315796590e+01 9.929333833528716013e+01 3.263128598225461019e+01
9.412344622297597496e+00 6.051304218773546495e+01 7.164898293533286733e+01
1.465397395138186099e+01 4.422508106403644490e+01 4.794288836211181604e+01
8.225396388853532414e+01 9.692690803709183456e+01 1.094951144085032357e+00
7.194681027081760760e+01 7.402100219812260207e+01 8.749682023115823881e+01
6.033899052894915371e+01 5.978206944640626830e+01 2.742111306225286782e+01
9.683449578460293594e+01 3.513468227602165683e+01 7.537433120680580600e+01
5.238015680555113818e+01 6.131387529519022195e+01 2.778356778086034140e+01
2.600679763665917221e+01 7.105759296889175403e+01 5.038791460373803766e+00
9.771859259846286250e+01 1.751644927794529139e+01 5.874915077832215360e+01
1.948042237400266075e+01 1.411366997605256746e+00 9.493706128902259422e+01
9.015168085636861406e+01 6.857249486196312205e+01 3.221623664844469914e+01
1.510233073927372871e+01 7.941536782722404553e+01 4.206258178236420520e+01
1.186243290097828051e+01 1.077139295473528158e+01 5.231531195642769028e+00
4.341694601199593961e+01 7.770961963320580423e+01 8.052130342027882648e+01
7.066792368535071489e+01 3.287202408760513350e+01 5.029634896774870612e+01
1.510412099031639421e+01 6.665150583555411856e+01 2.104934078691344013e+01
6.980497280125004522e+01 2.561255412313317947e+01 6.175075478451041988e+01
7.056427937735676892e+01 4.855074164886231358e+01 8.928543905411881099e+01
7.853597717569928705e+01 1.250490147016936060e+00 8.034703673518714595e+01
7.125945943191908327e+01 1.068486872946236055e+01 4.904577570995145663e+01
3.211615724612097011e+01 8.307328203372594544e+01 4.566082281140811716e+01
2.824259274093705585e+01 6.129115359424987020e+01 9.384979113716997290e+01
5.555430987807036303e+01 5.439968244877605485e+01 2.396364148286295048e+01
1.119722975375550078e+01 7.181341091376130237e+01 6.210983810262447946e+01
5.064083643721351002e+00 4.245944817058801846e+01 7.414710459841658974e+01
1.190700469681751272e+01 5.155540939349702256e+01 4.856638759336817657e+01
1.223380423708240272e+01 5.610770934463062076e+01 1.217978235832043410e+01
4.220939510015795548e+01 3.255819571620596520e+01 5.451712453459121832e+01
2.386180331465847004e+01 1.900516553592668245e+00 1.491103634450028359e+01
6.480434410065855388e+01 7.740800103079682515e+01 8.180505292640820869e+01
3.651336249666302791e+01 9.998410192663574492e+01 8.914024517224424926e+01
1.615029359724581326e+01 6.673165342975931935e+01 8.777468641477477718e+01
7.686886161470204115e+01 8.304617095272315908e+01 2.486638785381194339e+01
1.420568039784710912e+01 1.743032008211695683e+01 7.576367374210813921e+01
6.842286710979711017e+01 9.471815045084811402e+01 4.072089061079942240e+01
8.945841504038231307e+00 9.826817661338471055e+01 8.387093143084045721e+01
7.163272041185655326e+01 2.894060929472011168e+01 1.831913620071168225e+01
9.747117502014058132e+00 9.517803204247458382e+01 6.605240298738679883e+01
5.396499193066994771e+00 2.467235715636844162e+01 8.948009366644683382e+00
1.738378655839554199e+01 6.448455130148846592e+01 4.588415402381396113e+00
6.748447329981517839e+01 5.848057413906088442e+01 4.614217007326014652e+01
4.540115476143873252e+01 2.699762955598125203e+01 9.279740686687929951e+01
5.513924169034171285e+01 8.926637642196718048e+01 1.715514296844913389e+01
9.433836793742682403e+01 6.662253134832124601e+01 2.890953626099955898e+01
9.477484734833554114e+01 9.101088435985333547e+01 2.251369116646965196e+01
5.206767697884870927e+01 3.168486024108232613e+01 9.068183328685631039e+00
3.567138107613304498e+01 6.684775486818367085e+01 1.105559204789441452e+01
6.541673100057991519e+01 8.470806549105252259e+01 5.961343907402464026e+01
2.981871680174380401e+01 8.681658288089528241e+01 9.040889764316270316e+01
8.490856768410775146e+01 7.912092892694488455e+01 3.364756748606482972e+01
3.488511007714251377e+01 5.864291068639973759e+01 8.179243968117847885e+01
2.945129280643166148e+00 2.812142393586103495e+01 7.600932201952048217e+01
3.219169068586611360e+01 5.598265782531876766e+01 9.579604507589904472e+01
6.488711680015742900e+01 6.701838237348285077e+01 7.547747639600007119e+01
5.082875256918696039e+01 8.293476747333096455e+01 9.956969647263382228e+01
1.253520457348996686e+01 7.296075960542602878e+00 3.343414129573729632e-01
7.920551959666573794e+01 8.054136628316400959e+01 7.959536987705851274e+00
4.229413625591149639e+01 1.785281004668740579e+01 8.499791234287408770e+01
3.122122397906463931e+01 5.260109429022134009e+01 5.038158805925986172e+01
9.031794216212337290e+01 5.145829976708128584e+01 4.500889772979931536e+01
4.495573418787981268e+01 6.871618770303487622e+01 4.321911367224280554e+01
7.420343111213523457e+01 6.741591889361367862e+01 6.072489406951336832e+01
9.215271325088890819e+01 1.869168806288201701e+00 1.087410628978106075e+01
7.883948262902872983e+00 6.444751618558717610e+01 4.897013191297376977e+01
7.374777741762573058e+00 1.814515796769452649e+01 6.399061020520554166e+01
8.713603965979392285e+01 7.593555795007534925e+01 6.318134806633501910e+00
3.933711479505253017e+00 6.960930567438188632e+01 5.494040012447278798e+01
2.122964603420501817e+01 5.454092196530839942e+01 6.422473687722425950e+01
1.908918391871420184e+01 8.080578601692236873e+01 9.992187220795982228e+01
1.063982022783507375e+01 2.056038852843900955e+01 5.164098645794382492e+01
7.238299611278881684e+01 9.577810364648723862e+01 6.494657593660109285e+01
9.998261557484699580e+00 1.259606799217045747e+01 3.909716473647625179e+01
9.795370063164710928e+00 1.499848669601593443e+01 1.198444363245653221e+01
6.822980158352913804e+01 1.573270787583974695e+01 9.707794383377152769e+01
6.548615045125785628e+01 1.915232784966318746e+01 9.483641390443969499e+01
7.707460752063872178e+01 6.999752565972613638e+01 4.069466807976650813e+01
1.329618936664889173e+00 2.261683620176258103e+01 8.392001014758707811e+01
5.719412738696982501e+01 6.108123696952431203e+01 7.836774326385311440e+01
6.442986274656124124e+01 7.142998462937435988e+01 4.938654869205370801e+01
7.785114664456172306e+01 6.815983656413463621e+01 9.712793973532185987e+00
3.044430329080870479e+01 3.142383890406644653e+01 6.874659073620500749e+01
4.271860371123575817e+01 8.409300599146838806e+01 1.340803078094127088e+01
4.829607627693275163e+01 4.004979452704212406e+01 7.023065797996540027e+01
7.879241866011957995e+01 8.840260880001437727e+01 6.313646560743095648e+01
2.779769687965769620e+01 8.734173372317660267e+01 3.373548053830410787e+00
8.915520217473044795e+01 9.389340099607521495e+01 9.671037099550889593e+01
2.571067203625347730e+01 7.358170926912782761e+01 9.505626868883231850e+01
6.664487223695637397e+01 8.759984735185251736e+01 8.332270972463604153e+01
7.425270517052311448e+01 2.451309806219022036e+01 3.145287914202273782e+01
1.504644116266741172e+01 2.074970860195304212e+01 4.923742832646053103e+01
2.309465288242703451e+01 1.865770353249557445e+01 1.282342405694448750e+01
3.835650421136780608e+01 1.017536621324487456e+01 5.165286168128703537e+01
1.728032520689206564e+01 7.293029156279064296e+01 7.501592258013083381e+01
5.209552770338126493e+01 4.229118944610217312e+01 3.552589231840702411e+01
1.198322638361251080e+01 4.626699886072054113e+01 7.369321574966770072e+01
5.935386832965017234e-01 1.209013165809519386e+01 8.856661816157539135e+01
7.601046494639544449e+01 1.358526330051612607e+00 4.836457836241383745e+01
2.802983529568465570e+01 3.926549709348914341e+00 1.340830100981201767e+01
7.584072474111858142e-01 8.775001798436561273e+01 4.872159389315802969e+01
9.076289831738482405e+01 1.529477732668936873e+01 8.347769773595000231e+01
5.502010308672245387e+00 6.267681472310544422e+01 7.661484712782201711e+01
3.587460569256551679e+01 4.866204883247882407e+01 2.932324056018737934e+01
1.473241085631375924e+01 2.124404140799229790e+00 3.855112152072817366e+01
8.709573106488963390e+01 1.214351878162822640e+00 3.525759520005711067e+01
8.305849132649272804e+01 2.298653834070906044e+01 8.862358945585079084e+01
2.336154911400720735e+01 2.155770238436076625e+01 4.782808789834327712e+01
1.291691625935292898e+01 4.480528124010459834e+01 1.108641997733529294e+01
9.322514505097130666e+01 8.652761532558224644e+01 2.804178828106406129e+01
8.149137925989323605e+01 7.534627109025532832e+01 4.749660237774730831e+01
1.233507697815953108e+01 8.775567672925086526e+01 2.667320718555535919e+01
1.426339979202281327e+01 4.537656648665466719e+01 6.113288692668225366e+01
3.344062165434304745e+01 9.547387529146685381e+01 9.513848216592089102e+01
7.923956940279285988e+00 5.053976970593565454e+01 9.495754951293316992e+01
2.055706234917271757e+01 9.316428873576340663e+01 6.179185440347332303e+01
7.381988568655512495e+01 8.564735156486456447e+01 2.348416476299061273e+01
3.876776499338728854e+01 8.073622557840053560e+00 5.695478706943822544e+01
9.980461877465432963e+01 3.800866533608581221e+01 1.909593833327251033e+01
2.091880573531046394e+00 6.074678063516238780e+01 5.422798230956679078e+01
8.029002393582682373e+01 2.311274893554163867e+01 1.564464978304754794e+01
1.142694359123348491e+01 1.372146171294547123e+01 3.797470940841920140e+01
3.517306077062056602e+01 5.141440257311980133e+01 3.078809984585848625e+01
6.179967475313981140e+01 2.962876905447647857e+01 9.317128561174510537e+01
3.198135275652541765e+01 7.878052292818749081e+00 6.495015957820416475e+01
4.706231999448030479e+01 9.201934886408648140e+01 2.911379783271439425e+00
8.879246694607087420e+01 8.629794487258214986e+01 9.866574725522980316e+01
3.986266135056778381e+01 4.850883070044432799e+01 1.303996764999946123e+01
6.387850173866144132e+01 3.221764419440279426e+01 9.205331676315631739e+01
7.983692462661946365e+01 1.785065455006454727e+01 3.653613667536572507e+01
5.921610847470311256e+01 3.392854102035247621e+00 1.145801435213111930e+01
4.826243854572258840e+01 2.586452904934128938e+01 4.940300870862335358e+01
6.895389782951266255e+00 1.606589316376851784e+01 4.023420610338557246e+00
4.740575261303509080e+01 8.206811778236023258e+00 8.041254956471938442e+01
7.677637542063264675e+01 2.915469247393482988e+01 7.233717626809709600e+01
8.956256532396443504e+01 8.474672502480292735e+01 1.966555180009673620e+01
9.171155113811725101e+00 7.064850075317795586e+01 3.599446823161747488e+01
2.564420090120365003e+01 3.855433342488576898e+01 3.740086942002035642e+01
6.749959648259880396e+01 4.944708577994131105e+01 4.305241970723255918e+01
6.121193159456414179e+01 4.367061565133722922e+01 1.189112041929104535e+01
6.805431846887854519e+00 8.129055972159005705e+01 2.518214663839266620e+01
3.914324425931310714e+01 2.065697051532743345e+01 7.801294500839466650e+01
7.764625266488421573e+01 1.909978011429317490e+01 4.129656189601386984e+01
2.365699504130256514e+01 6.548179629352948439e+01 9.771745513032256270e+01
5.067670501653730497e+01 9.464430040990711746e+01 9.651239556456394553e+01
6.977797191311533709e+01 5.197702161961733935e+01 6.905062660215602932e+01
2.755849639956475805e+00 4.733340093781796298e+01 7.796625911023713940e+00
6.404669121551287425e+00 7.907660612751733709e+01 6.463800869765987045e+01
4.199662498325954374e+01 5.876153043454353053e+01 9.625501604163510194e+00
5.598308209253632484e+00 3.392651712680693521e+01 7.741644396384160132e+01
5.030335556974849709e+01 9.301721106627930169e+01 4.019019111364278274e+01
6.424916713851986572e+01 4.674114138682298147e+01 3.720681512771619737e+01
9.078526891585190128e+01 2.076302410345591909e+01 5.276635334019871237e+01
5.294633831252677680e+01 6.477332240758671844e+01 8.716093786923973852e+00
4.324447038376012387e+01 8.733038129174182984e+01 2.846405101187080433e+01
1.354668323320796830e+01 7.287849870741054303e+01 6.396779122679332374e+01
9.311029956774589778e+01 2.298088081728031540e+01 7.584975422599526951e+01
1.130617766735145757e+01 7.263454717973882424e+00 5.583973838764144659e+00
2.424544683502589493e+01 4.313592442037088404e+01 1.892345811304312519e+01
3.681435168702306271e+01 4.527072757467941244e+01 6.612672885558612990e+00
8.051146374535271377e+01 8.427628441819324223e+01 7.659007852931609683e-01
1.467316216200992329e+01 6.395986353343980113e+01 8.080163834599713368e+01
5.880710167594158833e+01 4.660376923471194743e+01 9.116359257930936622e+01
1.306526562386211054e+01 8.582097052623471001e+00 2.212540124381984086e+01
5.589960492902208244e+01 3.498351111738764274e+01 4.683498069459576385e+01
4.356340114656380536e+01 1.249810923566139209e+01 2.628138087217287833e+01
1.660472118684339549e+01 4.062127085193439058e+01 8.661102278377023822e+01
6.487693588719143634e+01 2.659646930735804915e+01 6.715598843952716379e+01
3.364513520464611673e+01 6.028198514676697783e+01 8.622290361769410083e+01
9.045626357650029092e+01 4.597796718215253264e+01 7.474946684746025483e+01
4.536094386148422331e+01 2.660653493464903985e+00 4.134230644626217810e+01
1.114224067062180623e+01 3.649154523290039265e+01 6.960233142540155882e+01
1.604950999498345610e+01 9.807477473464766149e+01 1.673501264990569126e+01
7.535896823860556992e+01 3.429045168570535651e+01 9.964431346600945005e+01
2.631359046594550222e+01 9.562943467646896067e+01 2.551723228789393172e+00
8.239930370263941484e+01 4.802742285748789897e+01 3.289507449840639453e+01
9.871202943606689928e+01 7.269584204064626931e+01 6.050912089594682186e+01
8.563339365862884733e+01 8.526333453964367948e+01 9.697352411596598643e+01
5.800822600497767212e+01 6.451450246166263014e+01 8.254554559862850738e+01
5.643658478832838199e+01 4.435565344167368806e+00 9.780548656985783396e+01
3.971753039757005865e+01 2.018142900946139306e+01 6.703811336945226174e+01
5.950206686834000891e+01 5.901918380196337210e+01 6.285670000339806052e+01
1.901519325452082398e+01 3.274315825342144493e+00 9.479693835592382811e+01
3.927589459044727960e+01 2.927094010104414057e+00 4.349552190268779839e+01
6.424206621437890874e+01 8.902279097780051131e+01 8.146980183169165457e+01
5.534577901182417747e+01 3.714377794901674434e+01 9.773141689978666591e+01
5.657006521684946421e+01 7.213965188326469047e+01 8.127586023115773273e+00
9.824448830007098366e+01 4.004485347359233316e+01 6.658713983098398614e+01
8.401111209985653261e+01 1.640492056167296298e+01 6.963140766338140963e+01
6.105980328662263901e+01 1.225480284964364230e+00 2.535640926970107500e+01
4.462638773852221163e+01 4.424712075019166946e+01 6.164377902621865246e+00
1.768946919281710706e+01 4.147239863362324286e+01 8.293935877159545100e+01
5.723565183684718249e+01 9.426399112850167228e+01 1.203250184579049886e+01
2.901299879626104783e+01 7.269647511351905678e+01 4.905819773732491740e+01
1.872545310024852228e+01 3.183169301957400421e+01 4.570771145398965984e+01
1.247964478943006661e+01 5.802481665713005299e+01 8.974333267292595906e+01
5.493421626560090232e+01 9.674914059090238538e+01 1.397550559070759313e+00
7.230099075415790821e+01 5.945927684968081195e+01 7.166129591073915606e+01
7.296098169230393182e+01 2.849201177923282913e+01 2.371208833784510528e+00
9.546566031616970349e+01 6.661079654478542977e+01 5.489770910326308595e+00
1.577368663719647124e+00 6.669727754086184746e+01 2.452128551143134416e+01
3.449889705562352304e+01 6.241369876837057262e+01 7.981543428408772911e+01
2.941682336195736625e+01 7.999271223111368556e+01 2.653506750664950076e+01
1.739934755275675116e+01 9.014443002500053126e+01 9.781642397671326705e+01
1.480365296913173090e+01 9.194056617499074946e+01 2.100587661273723938e+01
1.185517712504717736e+01 5.079364831059521634e+01 9.745043826236314999e+01
8.531467690932889525e+01 2.383396141667789436e+01 7.276638679766787732e+01
