8.323539684034625452e+01 9.946868281442536386e+01 6.618728242167892795e+00
2.651758839586904060e-01 3.254570368269307323e+01 4.556476594174152694e+01
1.803681707029459602e+01 4.478945088028039123e+01 2.597257325039858955e+01
8.278621146419527577e+01 2.322858476871621036e+01 5.202253846657417569e+01
1.722605662448827246e+01 7.547984848419163484e+01 2.731904626440201511e+01
2.184176976397532854e+01 5.893842745350317358e+01 4.970242553439595667e+01
1.110789003788608120e+01 5.745212605586551291e+01 5.548228640601408301e+01
6.446122938221373033e+01 6.351165920855859071e+01 2.458360900285228023e+00
3.406695150093369762e+01 9.931898723768169646e+01 7.822298790270085078e+01
8.393381439303051650e+01 1.394070934282689578e+01 7.774307838464212139e+00
1.330992377881243804e+01 1.996138657574210029e+01 7.929177357274787141e+01
2.849390241979459404e+01 9.521582649183123692e+00 3.352750939539220809e+01
7.637319337351826221e+01 2.557088553854517343e+01 4.086901640848159900e+01
8.841740024550918520e+01 5.356704223278793364e+01 9.045955418497285905e+00
9.082339172551779427e+01 4.073006905529825872e+01 4.050736346206392824e+01
7.291751597900470472e+01 5.684108636278271121e+01 2.174233580740775196e+01
8.582121028708682786e+01 6.144141164061387173e+01 7.009221883423067823e+01
8.033029389572628531e+01 7.482131513327672678e+01 4.871188043969485193e+01
5.143919830721191033e+01 7.431537300132464452e+01 6.699177796255839645e-01
8.789440617801598421e+01 8.185281093321772516e+01 9.430536705010497656e+01
5.580199290245197119e+01 4.087712636080986783e+00 4.697622220314132591e+01
9.428818288643685719e+01 7.972073139101489403e+01 3.749561597587906192e+01
8.867903974368559261e+01 1.244077644497471091e+01 7.714627344890135419e+01
2.199206353092003496e+01 5.944073709796783334e+01 9.479459878887756474e+01
5.961021515691212613e+01 2.743886963972608228e+01 7.805683964506397388e+01
6.313238974159449413e+01 9.054548564022330481e+01 4.581024805310893555e+01
5.808087638787641538e+01 6.998545339566597079e+00 2.992952900144244666e+01
6.083695177007073340e+01 1.831002418135817678e+01 6.300959968303388337e+00
7.724447544376845087e+01 3.719647038876298240e+01 2.323036645485797536e+01
7.774243146960219519e+01 3.672944411387418739e+01 4.163220002488417038e+01
4.031484601423873215e+00 2.943322784340376330e+01 7.240375331198679021e+01
9.451787910102683554e+01 6.317556413072377808e+00 2.819627889550159239e+01
8.294449740491451450e+01 4.857707838833422898e+01 4.649946793119868005e+01
6.344772712581770335e+00 1.289434225995295158e+01 8.091928426822299514e+01
8.629828510875206860e+01 5.895689279106682790e+01 3.818797881413076567e+01
9.044695441220527243e+01 7.707727624005589462e+01 7.188725524270120104e+01
1.212135593716552329e+01 4.985568429679388913e+01 8.004086139971136049e+01
8.813458251666810384e+01 2.327742389969795767e+01 8.103933823091465172e+01
2.408444612573919130e+01 4.256189935712203720e+01 8.957755689697140156e+01
2.919498219877290168e+01 7.322517307893947702e+01 7.646417580287427995e+01
2.030032314695526807e+01 1.519503144901701575e+00 5.592499215230880338e+01
6.088315955343495034e+01 4.132489359341578705e+01 4.061624035267485056e+01
3.132021113293486181e+01 2.634620351170041630e+01 7.047978116672791771e+01
1.855799339286501493e+01 6.033097498589157226e+01 9.439325252548911749e+01
8.462206883730228668e+00 1.834422418421750578e+01 9.671115370745067708e+01
7.495234067052118121e+01 7.679739708768401840e+01 5.929439189615902706e+01
9.599464298330231316e+01 6.603772749369884565e+00 7.732800823540554802e+01
1.752600466698778092e+01 5.572328970077451515e+01 9.632247186505551895e+01
9.554809303170152646e+01 4.727275415746751008e+01 9.977348337863844563e+01
9.839149097345425332e+01 6.418053058226747964e+01 9.306396890615154405e+00
6.546344301177595071e+01 7.646753414906076785e+01 5.390771560766406623e+01
3.342145194868433578e+01 3.542579306277966111e+01 6.657264439839516967e+01
3.416604780145405584e+01 1.415488523822517841e+01 9.975249438179449157e+01
6.787419502182024189e+01 2.596348604072028365e+01 9.856008190648383049e+01
9.509648491153832595e+00 4.882880552808125429e+01 3.369056872243045575e+01
6.498059600420925008e+00 7.266290922996293489e+01 7.239421000700654929e+01
9.385467076514629525e+01 5.915115116146458973e+01 8.131493607975922089e+01
7.017297277236669117e+01 1.223762432256983956e+01 5.311673098439413110e+01
6.130372938307654351e+01 9.433361977477961346e+00 7.329785435745391453e+01
5.447913838728113234e+01 7.670529728475550257e+01 5.779313989687499031e+01
6.443207905101512267e+01 5.691879196597417945e+01 9.721416259063391863e+01
3.387739162972500395e+01 1.601534899860714845e+01 3.829929740279203187e+00
6.275641449509667069e+01 3.074930412890628517e+01 6.624847143156686968e+01
9.379025918510514259e+01 6.860629127732990185e+01 2.768082463958687622e+00
7.554571090212780504e+00 9.431596734329383480e+01 6.066618830059460521e+01
5.329634379898519114e+01 7.066058676418029449e+01 5.565784690166240267e+01
1.868977678848829882e+01 8.616602890602281661e+01 6.917234873020726127e+01
3.430451833012912033e+01 1.895506941435179016e+01 6.037573396169963758e+01
2.137858662784321950e+01 5.472111414321098977e+01 1.918351366801962499e-02
5.681666700139991377e+01 2.456668225731166899e+01 7.359241537516993503e+01
4.566806879106836448e+01 7.368868672352499516e+01 7.733558164577949867e+01
9.555927302039344795e+01 7.956126039734039068e+01 9.535709836279374940e+01
6.028466252213452492e+01 8.415317593545110242e+01 8.947944207397263483e+00
2.629838824858889978e+01 4.372390080930011891e+01 7.336128769682086670e+01
8.579904914293872764e+01 8.351685338920356116e+01 8.329073919815131433e+01
2.112314949081067894e+01 1.218073873984039146e+01 1.033194741063547895e+01
4.432648254311630609e+01 8.708519631840329112e+01 3.664029387792171377e+01
8.057257278778136822e+01 3.742055192474935410e+01 9.238478573502821689e+01
4.714507748665200637e+01 3.764974851023762170e+01 8.670236330616307896e+01
2.675632886240718733e+01 3.831262277067493471e+01 6.969709443113204372e+01
8.683861196746390121e+00 4.585105431691527400e+01 3.396238450796528241e+01
7.922131478638530666e+01 1.859842652452818967e+01 4.181555084933678756e+01
4.006049073038560948e+01 1.735274066308221208e+01 6.403961364295986414e+01
8.266439609677760814e+01 6.564173369696528937e+01 4.437929631070303316e+01
5.013133035380623426e+01 5.511209730448898370e+01 9.413066860078309617e+01
8.238939392557658437e+01 8.950345825693301549e+01 1.182652330757347769e+01
8.000484727227936332e+01 1.382871790565077852e+01 4.936343521158708114e+01
7.208015736151685005e+00 8.964247609873698508e+00 4.211107588880808095e+01
2.371706132064871397e+01 3.052430836513941870e+00 7.103384054936266523e+01
8.134910663246808227e+00 8.994531965291970721e+01 5.711803733103597835e+01
5.910464305807328067e-01 1.054684291905172344e+01 4.531193732495031767e+00
1.378460522985568382e+01 6.477910199782932921e+01 8.502209964127402486e+01
9.202403539673188959e+01 6.882396812696607924e+01 7.648881061036492213e+01
5.689091141352581360e+01 7.179082001006268854e+01 3.804545908688668021e+01
7.423485113454975703e+01 6.689839494864965275e+01 1.017530857708159875e+00
3.395674076363926730e+01 9.486035822487795599e+01 7.276254487732791709e+00
1.331072342116601526e-01 8.394901421674353514e+01 7.147337971559359460e+01
7.262875383433950560e+01 6.330774966457764208e+01 6.845620573201424008e+01
2.027396748479954880e+01 6.737827197111008104e+01 2.063290615126481953e+01
8.492880619015625143e+01 3.619686000536639625e+01 1.999751122998569741e+01
2.939565124817310604e+01 5.484152981358039369e+01 5.431342526543894422e+01
9.448855842557502882e+00 9.110977104083417544e+01 8.127763633927625619e+01
1.162202006697872214e+01 9.472452956675411428e+01 7.909440242084968986e+01
3.293938034921137614e+01 8.710594306842382650e+01 9.388638980926432964e+01
8.672855319126016482e+00 3.644580651926126080e+01 7.077952652199253691e+01
2.457758244719192575e+01 9.203523738076458471e+01 7.947272151444806809e+00
7.224383281921772948e+01 1.507254721285632471e+01 9.766786365964508221e-02
3.423384204701022071e+01 6.344285025251251042e+00 8.657330064880468967e+01
8.453966325631799350e+01 7.676799093506430438e+01 6.715000107866839585e+01
7.539969720391258079e+01 2.626294325791739226e+01 3.952403769782911525e+01
3.668981447581750643e+01 8.202189671684757855e+01 7.233962388744497041e+00
1.856899816367669587e+01 7.913236001249985918e+01 9.001141703911399361e+01
4.678841535646721894e+01 7.988762788549371407e+01 8.760326427713285113e+01
5.027433540050100191e+01 6.922369286736378058e+01 4.462429955063475262e+01
6.317754224580416178e+01 3.964020791427675761e+01 5.115838768398822367e+01
6.262284592042895781e+01 3.489130787321288096e+01 3.041085991737059047e+01
3.401806328672385149e+01 3.629149589082665273e+01 9.576674269987131538e+01
7.909272854075267389e+01 2.588896085414006265e+01 4.690979002700793643e+01
6.757353460262461198e+00 4.179995127505588215e+01 4.603092153227920136e+01
1.416972573599053575e+01 8.905904894716893239e+01 4.932249768743933771e+01
9.044659000961240736e+01 8.667672841543735274e+01 7.019990267431020925e+01
9.362548145727473070e+01 3.567150943467467528e+01 2.827125485401202809e+01
5.286537449664466948e+01 1.643318693933528607e+01 9.030075213473192264e+01
9.710751212895363693e+00 7.921612625782584871e+01 3.675310306161460971e+01
3.977879761155778127e+00 5.734911970512794710e+01 7.235755959317442887e+01
6.730890811709265620e+01 6.806142029694541407e+01 9.722301675067777182e+01
2.700097148933223679e+01 1.624333518925120501e+01 2.676280163213673546e+01
3.895766455444055509e+01 8.815946893529985573e+01 4.259565423335541823e+01
5.311439576252141848e+01 3.528665839720858344e+01 4.211883217374994359e+01
2.897018055581037643e+01 9.484348232785153243e+01 9.118366649386500100e+00
4.043889817829835209e+01 1.106714046099592785e+01 2.357307629315430475e+01
1.735173227797879392e+01 5.042764530424861391e+01 6.123850681620535141e+00
2.728664835382366149e+00 1.282000812188483962e+01 1.019376986052474798e+01
2.044416247139511000e+01 5.989204485781240805e+01 5.353250944417413848e+01
4.359693256284621299e+01 4.131111124742821517e+01 1.053893686805749041e+01
1.075006192306162589e+01 3.340146327395218151e+01 1.900559326986004294e+01
9.668086692906182122e+01 9.288070660843028570e-01 7.509337991574393811e+01
1.749024588139036496e+00 4.989342444585032510e+00 9.112828447985373259e+01
6.589675771359728174e+01 5.617597967924606905e+01 5.022004300704526969e+01
9.147507454349723233e+00 4.439714862195886624e+00 3.402741257041286271e+00
5.775082388081328588e+01 2.097217164801029554e+01 1.679704386162242002e+01
2.719613346391012243e+01 1.602531687003042649e+01 7.626178951842365450e+01
5.195871885688562841e+00 4.043614532840826570e+01 2.018904491555340996e+01
2.546615669349565536e+01 6.192148250921858477e+01 6.339318836679241898e+00
8.079274537829890335e+01 1.380365489800545831e+01 6.199329547190616552e+01
5.472103489610356775e+01 5.967433679606520514e+01 9.197979814091958417e+01
8.592873155851637534e+01 5.450406772257314714e+01 8.277201134201541777e+01
5.708795717059857822e+01 8.134215176720826435e+01 4.711095842882133411e+01
8.098899348053993208e+01 6.328671118923706729e+01 8.540403039317480705e+01
2.754202543641315515e+01 1.755308378387870860e+01 7.818311826883815741e+01
8.756581015679779512e+01 3.141210613503075955e+00 3.983157444343397913e+01
6.982943689480751459e+01 4.557674464018166560e+01 6.595674451207034394e+01
5.140662043167907314e+01 1.580820506138707060e+01 9.949111690093378968e+01
9.711910291858916189e-01 9.219897662944886463e+01 7.545879924333156907e+01
7.525269002394013285e+01 3.736201580080469142e+01 9.064344995064581667e+01
7.060215945359787781e+01 2.192334701180170953e+01 8.550871492670511032e+01
2.188033635723157744e+01 3.267803451316505203e+01 2.917063898101108776e+01
8.256922959547043206e+01 2.875593880142246483e-01 8.167854314581447284e+01
1.189372577935048270e+01 6.724798122191508298e+01 6.196854170270903239e+01
1.189886394422680027e+01 9.527403169891755397e+01 4.128520996510444263e+01
6.453242196464888991e+01 6.080406099864585912e+01 9.852028026405828598e+01
3.859503327891354019e+01 9.767907039255129575e+01 9.448351424182868641e+01
2.335239307508138040e+01 5.778316914814163319e+00 6.086542314909478080e+01
9.312819841207533500e+01 2.899903471007859679e+01 3.924666186260424894e+01
3.762804399249664300e+01 8.624556394020588712e+00 4.399403845431326943e+01
8.112265551205389613e+00 8.332669823474581960e+00 1.599994998395833967e+01
2.967079031707254799e+01 7.535455250533364335e+01 2.551219451536701488e+00
5.138821888258884485e+01 1.613439940778702564e+01 9.452311895294297273e+00
6.793371155974584497e+01 6.600757037103845448e+01 3.352814586709087763e+01
2.672590113073414386e+01 1.070104525778313764e+01 8.367513216626034023e+01
6.839741992809676674e+01 1.208404196488229765e+01 9.296266148604831869e+01
3.708451247392068240e+01 4.401551658026447988e+00 3.606885227324534071e+01
3.183307052863979436e+01 5.795953315841430964e+01 1.716545007256128486e+01
9.737996497612367364e+01 4.447622601391820751e+00 2.582481796505348015e+01
4.099615358691730194e+01 3.096170982929592341e+01 2.292064378363652821e+01
1.226430886870288894e+01 5.580407657080899142e-01 2.623322210276563027e+01
1.653506348969812123e+01 2.974439481995347734e+01 1.133130704798048782e+01
6.799013980960320680e+01 5.818771849033966959e+01 3.293848754795603018e+00
7.182524006992821342e+01 9.847010263141058317e+01 9.822529522344899533e+01
3.391076693957042210e+01 5.226091211977440310e+01 2.484947640805001967e+01
2.694464417909540188e+01 1.996951570874372361e+00 6.497648464279881964e+00
7.941748991648852041e+01 6.329173219949224105e+00 8.808129967711037978e+01
8.728216211041356587e+01 5.157063271227929846e+01 3.260976857662861761e+01
8.431891445704617638e+01 3.598196721839463930e+00 8.275891607168792063e+01
9.518950031461193362e+01 9.658567901171659287e+01 5.522635401725405302e+01
3.872997419865797930e+00 8.249234298289920275e+01 5.131642828409976431e+00
3.496352253810152177e+01 6.048914859614517070e+01 7.866887610726924152e+01
3.885531519454909954e+01 1.975273115059522766e+01 1.089816955385015618e+01
9.258006930237088739e+01 7.082534578132356273e+01 4.248637220132541614e+01
9.918272699069197174e+00 6.978387128734365774e+01 3.790223924026155089e+01
5.860007905338673595e+01 7.509532296895228853e+01 9.753282547366364952e+01
7.184067688011482744e+01 9.966795972610029253e+01 9.054302464036119602e+01
5.511393219037212532e+01 9.553799435229890946e+01 5.678353973703711688e+01
2.335179535618938473e+01 9.020427709734936172e+01 5.776844774565850571e+01
8.464901500457887096e+01 5.582848950689259482e+01 3.318348813223286697e+01
3.744139838797400444e+01 3.538190325726409213e+01 3.782678171051326643e+01
3.721253019944546736e+01 4.987640556972136352e+01 9.123789983929356140e+01
4.988056069829303141e+01 1.551853539365659529e+01 2.306245782491592777e+01
1.429537233238131755e+01 9.823291732815803812e+01 5.042690220829461367e+01
6.600171148453584635e+01 8.102583633058488033e+01 9.298544127223202338e+01
3.797507588583484051e+01 1.703642268775000801e+01 2.673699448586399541e+01
4.159104193107970815e+01 7.287373337460907408e+01 6.764179985157522879e+01
4.529200376629961511e+01 3.794431791031619383e+01 7.090300097125688694e+01
9.798616148685817961e+01 1.001308095425079703e+00 6.636329992267020828e+01
1.459178393796685214e+01 6.059324583196756819e+00 4.408755464083785824e+01
5.203623970020275635e+01 6.129432065849129430e+01 2.576816956701510897e+00
7.879892350383330779e+01 5.051026651231080677e+01 1.294717277553554169e+01
6.894221155146439628e+01 7.521237217503706773e+00 5.166076090017480738e+01
5.838223077974429032e+01 8.430286554185927628e+01 9.758419938537724647e+01
4.436636820264129000e+01 8.620451082538772880e+01 9.948008962861797499e+01
4.867660412385510504e+00 8.676883508259707867e+01 8.344012424915763404e+01
7.631578397091386989e+01 6.098645559809865802e+01 4.166214788764459342e+01
6.371648282117053697e+01 7.328785445848777158e+01 6.313741435947478919e+01
3.891344592990021312e+01 2.544429127167162719e+01 9.886886601866312674e+01
4.395093476205458316e+00 4.678496560781955083e+01 2.469010069750825664e+01
3.462073197536592772e+01 2.092794880389001833e+01 3.712170079603536266e+01
6.662372163346526577e+01 2.399277615880135439e+00 6.852242856651218972e+01
7.158571364522825498e+00 7.870188002233150826e+01 7.892699945887198965e+01
2.481480335324279807e+01 7.018247530129418266e+00 2.202814382505964375e+01
7.014241934642291199e+01 8.050114765596234179e+01 2.659416414761388481e+01
4.825587108916480616e+01 6.141468759249598719e+01 7.864203406420159581e+01
1.619649562389619035e+01 3.599819879996023531e+01 6.633042621778540138e+01
1.450062571744337170e+01 8.156987478983367623e+00 8.978946842311013654e+01
4.974161693139226514e+01 6.556647126786383240e+01 2.302686155195955564e+01
9.997924741602943755e+01 2.750571502546702618e+01 6.732990150710409694e+01
1.685580009117454381e+01 7.368839481906779554e+01 4.650597100422417896e+01
4.191477439673979433e+01 2.193416932909657646e+01 6.094977047969955919e+01
3.935283851802522292e+01 1.827296619399629662e+01 8.012124564121814174e-02
4.029892347128215846e+01 6.283219316069575910e+01 5.936616206682072772e+01
9.237523379526919598e+01 6.470314541934638441e+01 7.725520056534011815e+01
1.892072859507455362e+01 4.475057066471621603e+00 5.848616010254483655e+01
3.341197108748169597e+01 3.627657145753290280e+01 1.456296075866220185e+01
8.036720995455986838e+01 7.539504213885301454e+01 6.152452236115571083e+01
3.880217638071756880e+01 4.332565529496334733e+01 3.228887305857466572e+01
1.529718548743030926e+00 5.703977871139714750e+01 6.184592649841587075e+01
9.398105848910573457e+01 7.753600526974253171e+01 6.817722370854798442e+01
3.325089193628588902e+01 4.581321519662670028e+01 5.980809095431403932e+01
6.868091610929174351e+01 5.495778212762314752e+01 3.774298657657728739e+01
5.391546044092996226e+01 1.102619524270746965e+01 3.354063753107323720e+01
6.732027509132069554e+01 4.839647382353356875e+01 9.937634575332101861e+01
6.405072819873450385e+01 6.573001986525387963e+01 4.453771817939069422e+01
7.066171558327792468e+01 6.146399382601288863e+01 6.737814477891990173e+00
7.191180836104250318e+01 4.911063279111951374e+01 3.063461175652674129e+01
4.048515372559835157e+01 6.476808663235404140e+01 5.269358644808534109e+01
7.783392792883141453e+01 4.907503800689493545e+01 9.151523195628679730e+01
9.403996852148183905e+01 9.595075774343729336e+01 6.552267730251020339e+01
8.322371039712373886e+01 9.260066161292274955e+01 7.513966677864407018e+01
3.624514377540128152e+01 4.348508360255859628e+01 9.773725061071819198e+01
2.466881276244101784e+01 6.714140975024683655e+01 1.600437150212975368e+01
2.803681275622442826e+01 1.848798472388513048e+01 3.704155127381992685e+01
3.059182408919234319e+01 5.984533633322753232e+00 9.265445701352528829e+01
3.074401961111184889e+01 4.398967509363252049e+01 7.386143103043156088e+01
8.856314663491933459e+01 5.188559431668529243e+01 1.418081353223191776e+01
1.738378655839554199e+01 6.448455130148846592e+01 4.588415402381396113e+00
3.457636033412457977e+01 4.651160822221989122e+01 5.401191201610180315e+01
9.321220235761970230e+01 8.613317599409010938e+01 4.829325194518515474e+01
6.174215875551544030e+01 4.429479359937715799e+00 6.813019072583522018e+01
5.417892160581778427e+01 2.973102427106972812e+01 5.076849191151017493e+01
2.230519417230887314e+01 2.562105168989791082e+01 5.619470092652200321e+01
5.109265935985211371e+01 2.821814242502348336e+01 5.882661938065406559e+01
8.742067174982322797e+01 7.512802245834851078e+01 9.667882473008770461e+00
9.248824337224590408e+01 9.415240318045090362e+01 5.838925403258176061e+01
2.685847654010409258e+00 3.451817225456824900e+01 1.717197445890651508e+01
8.600831996216862763e+01 5.233270563480951409e+01 5.304915748218797233e+01
1.728866648813948004e+01 4.291570952446601694e+01 3.467002135997685741e+01
7.004200122404179751e+01 9.861311873875609990e+01 3.860952086486487644e+01
5.453647104081675678e+01 6.779167544925040545e+01 1.963685761888755010e+01
1.736588170436192868e+01 6.034937293701162275e+01 9.338715558639363223e+01
9.017535575856239660e+00 6.433157411965689221e+01 8.390541633777168329e+01
3.918602374376200004e+01 9.368307834334403594e+01 6.686829486396115385e+01
1.967322375375428578e+01 5.505028036441233752e+01 5.871270304291408593e+01
7.352396613498794409e+01 6.434391515851761767e+01 7.566474808615566872e+01
5.539507326850549163e+01 9.520774876897790762e+01 6.022313244186139514e+01
7.788515795945222919e+01 4.644991320050711892e+01 3.032517610047390377e+01
7.431781248181088984e+01 6.860007250740910933e+01 1.369214618356194890e+01
4.750133933108882900e+01 4.794022951155809409e+01 5.539739757687740251e+01
9.807659261940497686e+01 8.523119524122829205e+01 1.447143214175583559e+01
8.716222900805313145e+01 3.104274878545814076e+01 6.351278131104791669e+01
8.028146306772315199e+01 3.813337320825915810e+00 2.964156740539099033e+01
3.627549537891897558e+01 2.493074216007450516e+01 2.976040289684693718e+01
3.184460443651375527e+01 5.975686727182247893e+01 8.864906328444392614e+01
7.399187559943941039e+01 7.352667550988665823e+01 6.411188252598343240e+01
4.301227506753115648e+01 6.553869150030291735e+01 3.808010660559197902e+01
8.191163077925574498e+01 4.999506275748093742e+01 9.737687205384591493e+01
4.083632759376706645e+01 6.388211185576670204e+01 4.179508942883480671e+01
7.091902379973367943e+01 2.261963864900637944e+01 4.945684107329717527e+00
4.891928085295271700e+01 8.555776327986140473e+01 9.126512910164079528e+01
1.385382798012858530e+01 4.581710870531191659e+01 6.672161829299686531e+01
3.384720025244414288e+00 9.188687050669932432e+01 4.311290330399019410e+01
5.078620411806232937e+01 3.739186431351125606e+01 2.471376043694946034e+01
1.995957707912178236e+01 3.436216353275043645e+01 1.258118279219097069e+01
6.595386298743076736e+01 3.493755308805071991e+01 9.279994275086239952e+01
4.762007049613088583e+01 5.298203046731575938e+00 5.583643682608266090e+01
5.125632389498705521e+01 3.393905738401365113e+01 9.050527603078384686e+01
7.731882887837615215e+01 4.380869939718866846e+01 7.048507508745622374e+01
8.232272294995286188e+01 7.168069502776978652e+01 9.328288471990153141e+01
2.942965059621557344e+01 1.547555004652932986e+01 5.378080976493071930e+00
7.964445180195889762e+00 8.750576192687054800e+01 6.379804834363381616e+01
8.746123540843245792e+01 6.478467134472302291e+01 4.905221642939453375e+01
9.909005019524252589e+01 8.366192502605569814e+01 3.915172929450532280e+01
5.360473370162674200e+01 7.083874398348707757e+01 3.777588396306360607e+01
5.382927738658938210e+01 6.071081955145420750e+01 2.258141855049823477e+01
8.640506192176835043e+01 5.368338161232769323e+01 4.691296594626281902e+00
7.600533003748360272e+01 5.840100199356995603e+01 5.092317664059501681e+01
6.834947700522708658e+01 1.254648927164970829e+01 5.852436259971337762e+01
2.108753489719141783e+01 5.001095489146960915e+01 4.367416709557437571e+01
2.619750201048625016e+01 9.657963231567126172e+01 3.482678666635528231e+01
7.065954429041785545e+01 5.554440909338942589e+01 6.097601700072039677e+01
6.373610163021526276e+00 9.377835086892143579e+01 7.802388872990877644e+01
7.949334011538144296e+01 3.907818693816422950e+01 3.388169959701383505e+01
2.264498917583097537e+01 6.296993674310517974e+01 6.255384189822302687e+01
1.873666064707560963e+01 2.611294704688446089e+01 2.062433778813805674e+01
7.201165911363321470e+01 3.784429165044996779e+01 7.253025465502223312e+01
5.740377785614440143e+01 7.088162742281328121e+01 4.885306644455220493e+01
4.793805634577287123e+01 5.450504746688190494e+01 4.948142282782033163e+01
7.293628090650902607e+01 5.474022448812242203e+01 7.102761029891128430e+01
6.376595068530795629e+01 3.738738227470022935e+01 5.522830261864817203e+01
9.264377656558045260e+01 5.954295854394266740e+01 1.696966274117561824e+01
2.847317173915038069e+01 4.321062801937826237e+01 1.228686835227751395e+01
4.587171329376494100e+01 1.932635297053564294e-01 2.087887717654061248e+01
4.260972844957525751e+01 8.154794663534205768e+01 3.805533198257376881e+01
7.157890319241992927e+01 2.433780981719735337e+00 3.888134896539222751e+01
2.483016079784996322e+01 6.183579474102580775e+01 1.307665450077188929e+00
5.286314711994123172e+01 6.421052190536090620e+01 1.120811928502030241e+01
4.961605157894580032e+01 6.061090605282644361e+01 1.628834809757218238e+01
8.920614330020226745e-01 4.957588594279342686e+01 6.034277404928101163e+00
4.734577941064411988e+01 1.283448111958599469e+01 4.045748915783440225e+01
9.874429129164670371e+01 4.339192162578619616e+00 9.207677140514147140e+01
3.962960901093220656e+01 3.206281744346153317e+01 6.742378484671000649e+01
7.855344796866521051e+01 6.579996070066803782e+01 3.866811641589571735e+01
4.528310478371793124e+01 9.095154269922683454e+01 6.103628490268846463e+01
4.594708411493903810e+01 8.977456573906901838e+01 1.205157725364619559e+01
3.871455234268397305e+01 1.319795796704917912e+01 7.032489981238630605e+01
9.924913227298789309e+01 3.659715046279670503e+01 1.993415116706844969e+01
5.075975584839580534e+01 1.140620734419062199e+00 8.666859891587117204e+01
4.181092117480008596e+01 1.729513542711563900e+01 1.072107454285460193e+01
9.841272143021084773e+00 1.688716527248700316e+01 4.612936739701915911e+01
1.931893952490015920e+01 1.850337805537209945e+01 7.825037757076127320e+01
4.322532883831953399e+01 7.609467511080799795e+01 9.386947213643192356e+01
8.427768626848423139e+01 3.732159557447941722e+01 2.228638180149802395e+01
2.149246537560527415e+01 3.116075581735487887e+01 4.959053468875265480e+01
4.522131279174417529e+01 2.451993418542662795e+01 5.887730633482105702e+01
7.512324436162268171e+01 5.669344429558365306e+01 8.120705744137232784e+01
7.872110536761098842e+01 7.813047096549867376e+01 8.582908670019875785e+01
4.526610209682046815e+01 4.278353142198607628e+01 6.832245052280150333e+00
9.550936085012972399e+01 9.251811372859238247e+01 6.127216903808793091e+01
6.793692990327019743e+01 8.621933617402767425e+01 8.881130225086879193e+01
3.691362014011634329e+00 1.826938903838393102e+01 4.061613878082731333e+01
2.733720770519184740e+01 2.213593630923622513e+01 6.096562247467689133e+01
2.837594380559157514e+01 5.348084746433335113e+01 3.702895178966533507e+01
7.661559322804187389e+01 5.075261618017074738e+01 6.280864104178385254e-01
9.258795442270573162e+00 9.616483200189770741e+01 9.353757937254320609e+01
8.909587416806152760e+01 5.614517175068791488e+01 7.202644864142875747e+01
9.668628486076680417e+01 8.542175219222527005e+01 1.860700134179102960e+01
8.560876005658506926e+01 5.659614582354058854e+01 4.451190434872724921e+01
2.956012274414836583e+01 9.175316419481151797e+01 2.543897635803045176e+01
8.977944618285249589e+00 9.418269647599602479e+01 1.869831387243385734e+01
4.729773602811461330e+01 9.785177761756528980e+01 7.521686673592297723e+01
5.302967474250755231e+01 2.024854101975595100e+01 8.319307758453908264e+01
9.093663391702774845e+01 7.525918478670567424e+01 5.211500298076635573e+01
6.702655916468641806e+01 8.538127334669269430e+01 8.903220959923628186e+01
3.673463604172088282e+01 4.846356304926013081e+01 2.463311206351836802e+01
9.829424595931895681e+01 2.301967470042139041e+01 2.791312467627075122e+01
1.119419230980086510e+01 6.562750101947180781e+01 3.186862836294336176e+01
5.212034047695517103e+01 3.657345984440934927e+01 9.309049895870317926e+01
9.143988867978849555e+01 8.135816816510619276e+01 4.986393527400404224e+01
7.652775003733849246e+01 9.808729616179589073e+01 1.483762331996491035e+01
4.833433685263081969e+01 4.767858700127602489e+00 6.636879140283224388e+01
1.841263381189016712e+01 5.858322244441479398e+01 5.399498608133749400e+01
5.522669916472460017e+01 1.525441303905948942e+01 9.800893341081550858e+00
5.677699195412112232e+01 4.726575018144541218e+01 5.576498089571114747e+01
7.443122281290881403e+01 2.070021945872966285e+01 8.457854611843038128e+01
7.524727398932510880e+01 5.011011258972634153e+01 5.186169858802374932e+01
9.458403545669003165e+01 3.694606053084026343e+00 8.565872702369902925e+01
6.145070809684837343e+01 4.990011426298168828e+01 9.655984205780447382e+01
4.047736289571479773e+01 6.012771725737763262e+01 7.719308674089599265e+01
4.020322930339652601e+01 9.125061362520648345e+01 7.172959445918844779e+01
8.994561590218638969e+01 2.827850856516156597e+01 2.249499266921437624e+01
3.976132602937308036e+01 6.687219126710378703e+01 6.288718450973449592e+01
8.641282067958660207e+01 3.112119607452720160e+01 6.033485813746205650e+01
5.598344160673033088e+01 4.020895792039404881e+01 7.466357739990512243e+01
3.262696326493723831e+01 3.165425598924760209e+01 4.468769639461991261e+01
2.945726040191089012e+01 4.017249242217416594e+01 6.008591167194987648e-01
6.493284375884222470e+01 9.356676582596492153e+01 4.594296463485925130e+00
2.191513021220453794e+01 2.928120764040604840e+01 4.521994637830430008e+01
4.670650434385738237e+01 2.522608420462199064e+01 4.398098928395074125e+01
9.392555880336590235e+01 7.269199189203337141e+01 7.745139585794666459e+01
3.390552335163643249e+01 1.350227801629156943e+01 9.560761224063105601e+01
3.135491715768623511e+00 7.512480994321435901e+00 8.453289427709597703e+01
2.346766265420923148e+01 6.050179943843229324e+01 5.329630800267489832e+01
9.153018137675687171e+01 9.703564803203275346e+01 6.947865505893557270e+01
4.017797892926270009e+01 4.994547588657012227e+01 2.957265812830300877e+00
6.749572531953374721e+01 6.376303903355368163e+01 3.689776812337912304e+01
8.010912692763159271e+01 5.489116602832377900e+00 7.300507183513008158e+01
4.839849507035089005e+01 8.516864706074798619e+01 4.442438757737699362e+00
7.955325485671410490e+01 4.631543646458074193e+01 5.448404550116472222e+01
5.066088561344772501e+01 9.334632285100880722e+01 4.544520804860891161e+01
8.167759701457228516e+01 7.614712550108238531e+01 5.047807077136660325e+01
7.956162551669986982e+00 8.802146902713124632e+01 7.659085587699124176e+01
7.503193151066727751e+01 8.177246329875367792e+01 2.351087619638253656e+01
3.014962221326416980e+01 6.032691936481297290e+01 5.158720234992543396e+01
8.144868152387516602e+01 7.476349932393642916e+01 2.653109354004082832e+01
2.653043675234575360e+01 2.525178379536456674e+01 6.532698453162525709e+01
7.463276019867738853e+01 8.064257934169958730e+01 2.905829011963084696e+01
8.186275909814304441e+01 9.736443971896254368e+01 3.267087169424132131e+00
4.209712298199597136e+00 6.470291934891716323e+01 3.490729743639696636e+01
5.093861548813370632e+01 6.277828330425596448e+01 9.702755836658347732e+01
6.006704292562719871e+01 5.201244377110577943e+01 5.047655400823182958e+01
7.101663181662075885e+01 4.016371010936239117e+01 3.884957909814169597e+01
9.395191713209256079e+01 3.403003698282902612e+00 4.046447881059298624e+01
1.203193901095023222e+00 9.914439407949757310e+01 6.514179447791178745e+01
8.311998967854549392e+01 3.689383742965488722e+01 2.276681194850661427e+01
5.954901986311912054e+01 7.734123791884556454e+01 1.307619492891916124e+01
8.809824110921239537e+01 1.646474901405128222e+01 7.126615416042841389e+01
2.513376803929022785e+01 4.627197044528458036e+01 2.439938358932176499e+01
7.510612897867821403e+01 8.079661104485748524e+01 3.276706535042457347e+01
7.148469122234686779e+01 9.338128353364068346e+01 6.314699495898026527e+01
3.952419953858395729e+01 5.074247600604040542e+01 9.987170490876761164e+01
2.083299636932286347e+01 3.602768471347116730e+01 9.047808678837878915e+01
3.813665173776852413e+01 4.747584671233150289e+01 3.710396449306966105e+01
4.053790071810845319e+01 7.763738178125673528e+01 3.710486270707518486e+01
1.320681063451533177e+01 7.168596811925937118e+01 3.960597028072937320e+01
1.084041013946438525e+01 1.456265647055122692e+01 1.951612640703577028e+01
7.598033025743376356e+01 4.687896047071172134e+00 4.448270186309949281e+01
3.465635870475335167e+01 6.599647580461656560e+01 8.530506888070677007e+01
5.478621271765013745e+01 9.767421920933698232e+01 3.320763061847146247e+01
7.541020738293954651e+01 9.813482509775535334e+01 4.912824461549004695e+01
5.193879150524230681e+01 4.980776929940431330e+01 4.013492028775256237e+00
3.486947122374009922e+01 6.568258470698079066e+01 8.812735430125920288e+01
5.371415653714225158e+01 1.030850638145238740e+01 9.698857471321309731e+01
5.592490244819718725e+01 8.575962093746987591e+01 1.008752462182475007e+01
6.063580983311032924e+01 2.680482476339496145e+01 9.969157721730296373e+01
5.627942580383482607e+01 3.361019578560014764e+01 3.196338906541231850e+01
9.936793000453934610e+01 2.214854256678929900e+01 4.426287248515459183e+00
5.609788747481358584e+00 2.930137050084058359e+01 2.604861383418698395e+01
9.498433467843558731e+01 8.810520960846601213e+01 9.173576228286447076e+01
7.332353007258606681e+01 1.193876803371624007e+01 7.912352932090005453e+00
7.519708805574076393e+01 1.201116297322045767e+01 7.453039809424144124e+00
8.881643436174350370e+01 9.064195619451285779e+01 2.853649600029978117e+01
1.090726633657080846e+01 7.795463244799887548e+01 2.102444768485135640e+01
2.782781263955520501e+01 4.445442741552707133e+00 4.131662619022365135e+01
2.210199872166277402e+01 5.089128115544669839e+01 8.409890975730898788e+01
2.096266536560679228e+01 3.386489610957560359e+01 9.787990570193078099e+01
2.641392846393619820e+00 9.082776134324520001e+01 6.016143424276481966e+01
2.557014454361799949e+01 5.904622743902684334e+01 6.752919330199394210e+01
6.321135668047228151e+00 8.969162151821927864e+01 2.866641345867947521e+01
4.194491992641656708e+01 6.660134245888788485e+01 1.213680120113194150e+01
3.521338064814398905e+01 6.666700967822498569e+01 1.781529782420807706e+01
3.665919214473034593e+00 3.645607294197736792e+01 4.786040126663881011e+01
9.836474739400632927e+01 5.709427681450463155e+01 6.544179494057715374e+01
1.648262321264791908e+01 1.008323717163106537e+01 8.832105002801702653e+01
7.131125926536306281e+01 9.531764830345947814e+01 1.007360375742993952e+01
4.568842429108032732e+00 5.331962816984039222e+01 4.401935386367594738e+00
6.663249669520438090e+01 6.620955733665438459e+01 8.564510042201783335e+01
9.569965674493512608e+01 9.839854622682454988e+01 4.729418103029503584e+01
7.032814594882310644e+01 8.156666083645261267e+01 8.585062814112809804e+01
7.659573101351854518e+01 3.349962159276479667e+01 4.143128770867054556e+00
4.730086912137254274e+01 5.306068679203457705e+00 2.671399076495841740e+01
9.455101063515049020e+01 2.900745349629973990e+00 6.000302464499507238e+01
8.846068108499804339e+01 6.406202181352840341e+01 5.439335056125893431e+01
2.653012127656745278e+01 3.208368265662497976e+01 9.084431884734395624e+01
5.846554103267811797e+01 9.506793169907481911e+01 8.335707723765285948e+01
7.809994345616215128e+01 6.510484854090439910e+01 4.873376335262805981e+01
3.173590877186441972e+01 2.904835082763221976e+01 4.609578429004179689e+00
8.604859336227541178e+01 8.530924814016445623e+01 1.324659280249758098e+01
5.652598166548484926e+01 2.071070811721620331e+01 7.245601388728262648e+00
9.485185786600551694e+01 8.202726134340794317e+01 5.143396419159661548e+01
6.154373988359736813e+01 7.100344153199202424e+01 3.546819053681351619e+01
6.554930365924469982e+01 3.511714344785639952e+01 7.929205077174304961e+01
8.196919959699911828e+01 1.620757236154336667e+01 1.077070533955010134e+01
7.867181562619640545e+01 4.891504067147901225e+01 1.860398127593235884e+01
5.299769528381347072e+01 3.626575727432503982e+01 1.503307337045470859e+01
9.402123713005401839e+01 9.200405854827401697e+01 4.776452986627288766e+01
5.666492938900996279e+01 4.682269257624020042e+01 2.099635003160983260e+01
2.990211331082025481e+01 3.514991711797706841e+01 7.736944011855894132e+01
1.392391554166322365e+01 5.240079654335847437e+01 2.349993579409369460e+01
8.942946546430967203e+01 4.189553568947669504e+01 5.214910528749360452e+01
2.925708469476009554e+01 2.459906059565867409e+01 5.831379784738219740e+01
1.489486005915013855e+01 4.637233259953572428e+01 2.919088990819525975e+01
1.810648433290249670e+01 8.337904630604678857e+01 1.103459948619210884e+01
8.862220553894889008e+01 2.545010413988679776e+00 6.453917196891703156e+01
3.127549779031254573e+01 1.509915652516071738e+01 2.916936526109570327e+00
3.231898325644664283e+01 8.908901352789581551e+01 7.409020614005697780e+01
6.656353474524480873e+01 2.989664254024415513e+01 4.581368964071529604e+01
1.687793151055050345e-02 6.697901720909720780e+01 7.584809973613306511e+01
9.868470029084416240e+01 8.261704013107159028e+01 3.083999226354561252e+00
2.164341423431781486e+00 8.334800527523972846e+01 5.946597637683902349e+01
1.917263939956148633e+01 7.356504099455027301e+01 8.109696279250367468e+01
7.904542393599427896e+01 1.692453452571334083e+01 1.917800876026368684e+01
3.346040041041045043e+01 6.063082100442775157e+01 4.994903467133057973e+01
5.451553495977701225e+00 6.392707645525206317e+01 3.619155465778274561e+01
7.494603857459833307e+01 5.486634402040694170e+01 5.573971934387375882e+01
1.711994443364931584e+01 4.694892846450803603e+01 2.030259286767029892e+01
4.333073324327458664e+01 3.935995623505655772e+01 6.447091294206829915e+00
5.777005351743567019e+01 1.065224719249968643e-01 9.348754642980594554e+01
4.157234604063230421e+01 2.971483619184058966e+01 2.207132055206342258e+01
5.411562035722680264e+01 2.438672346486615439e+01 1.824659540976663052e+01
8.437197024808751777e+00 3.488259947509704517e+01 3.793884326870976764e+01
7.734473520365868637e+01 6.209836703532236868e+01 7.159326456525116456e+00
8.758386864269439798e+00 8.970064580681511757e+01 7.983297078601574981e+01
4.923906681779587302e+01 5.087207218748536519e+01 9.304392656311392784e+01
2.215146042111572200e+01 5.961211385052450851e+01 4.767905050801232392e+01
1.784367103646655739e+00 5.964612817455105898e+01 9.581057146248134870e+01
1.400163081201533100e+00 5.550829122277867356e+01 6.238018084436350819e+01
2.250983059186473234e+00 5.408946657301561345e+01 3.923954069004920342e+01
4.164607238000242262e+01 6.188760771120414006e+01 7.571706622335621262e+01
3.607348207485819813e+01 4.295861680405962346e+01 2.818258552556205387e+01
3.971513335388154786e+01 7.584295207130770677e+01 2.378742747038675720e+00
6.210632986860935745e+01 8.734012234949382503e+01 7.361833371888549138e+00
4.648772242673693711e+00 6.064364712838789728e+01 4.447711968131847016e+01
2.802808631303376075e+01 8.677567380133353936e+01 7.674202041820203135e+01
4.696736142195375407e+01 4.021257254177205454e+01 1.967146632284252306e+01
8.840066270547131921e+01 6.848755960850857605e+01 2.879924995871840920e+00
9.239401854639601197e+01 4.522603336090876525e+01 3.377966216550827028e+01
7.778017279172915721e+01 2.300534228270878501e+00 5.344997630985759685e+01
8.948591570425483610e+01 6.519253798585819482e+01 7.803783685482243015e+01
5.044550057389097475e+01 6.328310401228506521e+01 7.150021900695088561e+01
3.179342798526899472e+01 4.830098893535051729e+01 8.973599190731262354e+01
1.528946086243654356e+01 8.182053078560961978e+01 7.062944304976646492e+01
9.376335419485548073e+01 4.725628041548974778e+01 5.098662743034260103e+01
7.990447195417466730e+01 5.746026294233751486e+01 1.553410685346250375e+01
4.319362474716372446e+01 9.353267615320993400e+01 5.684595677752450626e+01
4.630705253592903858e+00 7.451572052367829713e+01 3.106928768679073727e+01
1.255469189238257499e+01 6.637166271293399689e+01 5.465577936049142238e+01
8.758507142365243681e+01 1.618888716942997874e+01 5.215749254500623877e+00
5.670648750266416016e+00 5.878071313964403544e+01 7.184502873196163542e+00
6.338564778854706105e+01 2.419563883770611312e+01 9.207273290680630851e+01
9.452097779482964768e+01 4.677070352399201880e+01 6.376910500916967095e+01
6.208141936941073169e+01 1.889173618894250950e+01 4.241310007167842144e+01
3.118602320671952555e+01 4.312682901234453681e+01 8.830280073643981709e+00
4.664289481508361490e+01 4.225629422506722221e+01 1.889595373921191168e+01
8.778574597726887419e+01 5.714369912021245312e+01 4.152737320856295611e+01
8.067366245524098645e+01 8.805383978019071378e+01 4.504977241161973467e+01
1.903362447149976688e+01 9.502105544551918115e+01 1.804240845271322158e+01
6.983006544192302556e+01 3.872565843912547479e+01 9.536433275802428966e+01
9.551101454020640347e+01 9.240953892086065480e+01 2.868353434513702993e+01
3.661853260781167307e+01 4.189139571018222341e+01 7.483260959162203108e+01
7.808851846280235520e+01 1.663246137196387053e+01 5.526864711082139081e+01
9.648595674489017426e+01 8.717141921450355824e+01 2.345574134403720734e+01
5.575646577152652128e+01 8.369072504458669925e+01 3.933534665987319556e+01
2.324933480259470286e+01 7.299148654620127274e+01 3.128519982901425323e+01
7.728976761203017531e+01 7.609503074413198931e+01 4.383681681660793572e+01
2.822550881611074658e+01 6.302332132712512447e+01 9.374510299990578233e+01
5.401616384239009960e+01 8.400803791082303462e+01 6.571870541870833904e+01
5.785216064957119642e+01 9.832648712100234434e+01 8.039442350323956532e+01
9.948453661368345990e+01 2.307660181511376152e+01 2.207735828462276118e+01
6.358363595595783124e+01 8.478372309493676084e+01 2.901144308133705252e+01
2.012987580102005936e+01 8.986605119319162327e+01 6.819806249142499155e+01
9.718299809450330429e+01 6.016859866345222230e+01 9.206899276464696413e+01
8.229792626858905180e+01 7.026061729490254493e+01 1.328650013979471023e+00
1.698668263041341930e+01 2.841310150514131383e+00 2.923902455355051799e+01
7.870897576124969319e+00 6.403987574102878000e+01 7.967589899745995297e+01
5.463386891002085832e+01 1.104059927651912520e+00 8.790707268017274600e+01
7.635148151735504030e+01 4.823494915921864390e+01 4.448768605045309954e+01
8.523910880636663023e+01 6.646238323830129957e+01 8.531560269484106840e+00
7.393498813455626362e+01 9.932217543577201013e+01 4.809386350534842336e+01
6.579794196850475885e+01 5.975150054932392152e+01 6.087529261803692471e+00
6.881497974161980835e+01 8.596182809640835387e+01 3.204817617552905062e+01
8.499470723179733511e+01 2.377339227989939729e+01 3.810882381673039987e+01
5.681658886029331512e+01 7.943142826789997457e+01 9.561596561281213269e+01
6.629643836147782565e+01 6.646067748046885981e+01 5.317457258614170001e+01
1.020212627601655342e+01 7.475383824736047700e+01 9.432422291966186378e+01
3.977011747335751579e+01 5.543717788845094674e+01 3.535885889214741695e+01
3.915712423738545311e+01 2.720913715297879065e+01 5.704119554658215741e+00
4.835529778945767276e+01 3.879432622479599502e+01 4.636642372630705999e+00
4.760403097829723151e+01 4.399120642454672492e+01 9.039497967393643307e+01
9.016746853808548678e+01 1.149444406036206345e+01 3.378866333723193094e+01
7.240698143871938441e+01 4.108692293960744735e+01 4.213841861888133167e+01
1.090538459806472638e+01 3.980080924549145038e+01 3.040570345588194812e+01
9.917783799728620409e+01 6.764689244081944608e+00 6.324656320358945649e-01
2.745774146233473800e+01 7.662518926409828168e+01 5.662444997164056559e+01
2.002742250619159492e+01 2.196317787144681688e+01 8.791051929946372923e+01
1.619101430684260023e+01 6.202005910985587178e+01 4.958053502880199659e+01
9.715567644540782055e+01 7.580450057499349725e+01 1.661562692146823039e+01
3.443055798505612053e+00 2.978192172735995058e+01 7.594933246937429772e+01
1.698195023920213842e+01 1.004612651225849085e+01 5.001673323280648731e+01
1.842568293704333016e+01 1.054842360136060186e+01 4.234799505268287589e+01
1.417673005236096451e+01 3.289353830603347717e+01 5.541378833204660737e+01
7.496441446229374606e+01 1.733322813926044859e+01 6.981395584234358864e+01
6.695495607532924964e+01 5.797887571204979196e+01 7.957986343030222542e+01
8.374309085800148011e+01 9.337114888036678906e+01 1.417110264864548341e+01
1.272062228764604441e+01 2.462232001699508999e+01 3.606729635293537406e+00
9.979476769143246884e+01 5.708446214044412415e+01 1.089669501287705522e+01
8.651382798055085033e+00 9.328011326830848304e+01 5.584799928386868828e+01
5.742966755271626766e+01 9.141454591483714864e+01 4.701349849579516516e+00
1.536724207632167349e+01 2.422850878744483438e+01 5.246357745620235846e+01
4.503660583719606336e+01 4.673405678940709862e+01 6.843744647443558904e+01
4.309361196516663028e+01 1.998669254587701616e+01 5.474600456661573844e+01
7.818270995600083495e+01 7.312831117983672868e+01 6.772666913097734209e+01
3.631898153504779714e+01 1.439944418078600208e+01 6.952356065356805459e+01
1.088328676150934804e+01 4.179563835743628175e+01 5.429247629566318523e+01
4.378068101234823217e+01 7.579740171725337916e+01 9.746447582353087569e+01
1.162362061700386029e+01 7.645553184855824469e+00 1.144478147737828522e+01
4.821265078850510832e+01 9.734660003761348435e+01 3.439929607902907094e+01
5.653490914782575061e+01 9.832036048604089729e+01 5.661503667062166301e+01
4.144643531629300526e+01 2.676712846667664891e+01 8.695350831411026604e+01
7.052470864100513381e+01 6.731201579630640808e+00 4.309262617019179231e+01
3.551994696308702348e+00 5.319080544204022232e+01 5.550058588598532339e+01
2.201000846337518624e+01 7.032632087711763802e+01 1.636356619080336916e+00
1.940899693714586149e+01 7.266337217264566561e+01 4.776291900794488043e+01
7.874175742812073509e+01 2.377595257635329773e+01 8.505530106599412932e+01
9.949303876348180609e+01 5.867592033085748682e+01 9.198192425901491731e+01
1.891899188003864918e+00 2.725059905173168318e+01 5.952573108328898854e+01
2.821283073964697685e+00 2.612023954766694445e+01 2.267747996044969838e+01
3.945963868373514316e+00 3.464735048265715989e+01 6.751457270735855332e+01
1.101164879250400297e+01 7.188112274403940205e+01 2.551813713123708283e+01
4.177670183988726649e+01 7.390700490284874036e+01 8.534383852505116863e+01
6.781139759356456409e+01 2.809100091493332840e+01 2.217164094333350377e+01
5.079603662409607523e+01 8.903476368856236434e+01 3.262951596220675654e+00
7.924681099652406147e+01 4.779639608026724318e+01 2.928224467304013601e+01
6.860362917532927440e+01 6.890796539768369655e+01 4.568948645065928460e+00
3.523038886538596159e+01 5.127676837224763773e+01 6.992372166093183239e+01
8.250621942327724412e+01 2.471041496355172029e+01 6.367744281268839757e+01
1.933688188264921592e+01 2.472686003033043178e+01 3.989269323843159043e+01
3.123154922146217416e+01 5.733309610067406226e+01 4.202104799911793265e+01
3.555233711455295520e+01 9.526837523657523832e+01 2.686036037067546189e+01
9.390100850443926106e+01 7.756682376266178380e+01 3.877925771673766064e+01
8.309095283635534201e+01 5.238867810747836984e+01 5.019455506536176870e+01
6.867909153193463290e+00 6.149318798360504701e+01 5.976689711322868703e+01
9.025195088896710160e+01 9.170180006124853378e+01 7.921972717942125541e+01
1.606030655145606190e+01 7.799293027783006949e+01 1.054113046404476783e+01
6.286452653617911324e+01 1.993058210009052189e+01 5.968876114894757734e+01
6.397311240727362502e+01 6.937486421061523245e+00 3.677106658455220156e+01
2.263399802971004604e+01 1.751878409702334327e+00 1.936230630623360227e+01
6.235480381075137046e+01 4.208384874182391400e+01 1.665797935763366766e+01
3.639735663947117672e+01 2.317402699332904348e+01 8.940380851677499408e+00
1.510161318548338727e+01 2.280668468240044788e+01 4.143040240864435475e+01
5.685510561198776713e+01 4.598981174795021332e+01 1.983940757739254224e+01
6.375213577543671306e+01 9.198727519166860489e+00 6.337900256746421235e+01
8.918942738757290556e+01 4.400831721204097136e+01 3.402867092354289014e+01
9.861332695596996700e+01 8.013783926498675214e+01 7.204997938447644401e+01
5.417910029944440709e+01 8.982415532389934754e+01 1.853801250632125530e+00
1.352187603877672473e+01 7.524360804202191844e+01 9.934969205700100758e+01
9.376108998634829561e+01 7.092488971041956347e+01 7.584288592656236005e+01
5.998192669138671107e+01 6.805889627556788923e+01 1.581421826782452023e+01
1.890070110933894654e+00 4.664416949387076983e+01 6.841942384418094036e+01
4.881721841516595362e+01 3.024357548522830186e+01 4.128837096555903230e+01
5.396499193066994771e+00 2.467235715636844162e+01 8.948009366644683382e+00
3.530834193433067014e+01 9.030942004463639705e+01 3.960884287476700649e+01
2.163217086771054198e+01 7.790251413307279904e+01 7.326062424837003562e+01
