43.339078 66.076562 25.332009
42.155315 66.908488 15.526300
27.790732 60.664848 32.872813
29.603544 37.434222 14.591819
45.982122 58.684217 17.131386
21.017216 32.052136 11.040656
35.720829 30.238719 28.982315
26.337174 65.021895 21.462315
28.647895 49.773246 37.866191
25.722636 36.687831 22.773382
27.497458 60.269954 25.700866
32.605759 37.019019 32.864508
36.926018 41.629136 13.193627
38.490751 64.916490 25.124509
38.228586 47.209565 37.194230
23.234533 45.825221 12.441006
27.877863 32.568216 15.195398
38.922038 36.965349 39.676406
23.052161 62.047098 12.314131
29.791208 53.751756 36.170422
47.370389 69.311554 16.101481
27.298331 60.453571 39.932678
39.080236 55.871758 25.084808
26.972787 58.593377 28.246914
29.649384 38.153521 34.008499
46.173472 52.167796 12.543980
39.297406 33.864271 20.364105
21.849426 39.967687 23.889532
39.431207 36.567185 32.365697
48.133808 60.549734 27.133445
47.066202 58.455814 20.955569
30.249598 68.953719 15.995616
36.217562 40.302890 34.625877
41.787221 41.766408 14.162822
31.134587 66.939044 21.540589
32.750269 33.383797 26.491585
30.138592 54.746999 29.158505
20.538977 69.673334 20.268873
38.109681 54.040547 14.550467
43.323378 39.949324 15.198028
40.469543 31.989634 24.437849
21.749702 56.972747 23.801390
24.609468 50.643584 16.381329
39.882398 62.558673 18.234523
20.970944 44.464057 33.310864
29.910781 37.134012 38.572534
46.383613 45.378138 27.622883
42.736978 37.868863 17.553791
48.447453 52.915234 29.006493
34.747807 52.283080 22.543682
41.779115 35.753687 14.621672
29.427618 43.299240 21.174902
20.058117 64.238012 27.331249
36.063913 34.942592 20.658023
38.047541 59.725000 23.445105
37.804750 37.580311 38.369273
44.487237 40.039706 14.747658
23.756717 32.016641 36.573889
24.911346 42.065674 11.199678
21.426896 42.838199 27.410048
44.554090 36.945774 25.773044
20.031322 53.041429 12.098683
32.957309 40.374829 33.977300
46.035766 34.349884 20.189220
23.356465 34.172271 26.369260
33.195508 58.563322 36.357064
36.715456 32.142071 18.878578
47.463619 40.370792 26.023218
36.520761 37.434730 30.055491
29.376451 36.812640 22.549228
47.872603 58.771043 16.585918
22.019634 52.577373 29.675396
35.896523 43.247428 30.789655
36.242446 48.368077 23.108482
27.225991 40.139075 36.948331
42.629145 39.174884 25.978169
33.926260 55.229360 12.260468
37.665949 46.204922 10.360554
45.182352 56.683075 36.491175
46.056095 48.638840 10.671969
24.067550 64.156119 16.528919
48.828715 58.190424 37.165694
34.381741 38.248959 14.176620
20.904805 35.510126 32.672554
37.684764 38.384367 37.527948
47.852204 59.795697 10.140139
22.444566 55.120666 37.452307
31.101254 32.772030 27.833435
32.856641 44.743608 16.139462
47.150712 43.343874 16.087608
48.418285 34.119285 19.972159
35.235782 65.174557 16.291360
33.683224 30.257715 37.602531
34.597288 61.690887 33.181404
46.179160 66.030707 15.444145
39.570295 49.270452 17.366308
30.291637 62.472206 23.435426
39.780692 65.977045 29.929421
42.470801 54.652993 34.279399
42.762420 68.011617 10.571938
48.279727 42.791049 16.382122
32.717465 58.687699 25.616980
26.782653 52.141550 38.532499
29.304909 61.124640 35.613820
37.301759 38.867206 24.066654
40.126184 47.136474 33.558597
21.265053 45.494040 38.405003
42.360746 38.549768 27.886734
31.672933 34.909087 14.725517
48.446444 45.352714 36.149941
29.371098 38.119562 17.946559
29.811086 45.215792 35.153748
28.680766 67.802481 10.598565
48.738726 52.881009 19.218529
25.747269 46.872615 17.868847
34.513169 40.943914 19.448314
49.307902 42.691894 21.122543
29.599513 54.094493 36.569968
25.662504 35.474226 37.019917
45.564579 63.908859 16.576596
46.554404 38.619711 29.772482
47.471328 62.272597 24.513427
48.512693 36.556882 12.509776
27.087828 37.501344 30.689401
32.851911 69.879535 23.760955
48.117712 41.729522 16.505498
25.408465 49.442048 36.603800
30.363651 53.166709 31.513119
32.479307 43.149855 25.666986
22.778454 64.824695 17.675093
24.454258 53.371991 24.407895
43.828941 47.205036 27.884017
34.571445 44.627137 18.750604
48.921435 46.317463 38.328715
47.876465 56.813928 22.995920
49.706389 52.612891 31.107957
49.345796 67.328529 18.867091
39.865527 69.895063 32.290403
27.800791 51.082285 29.543919
44.170355 35.632116 33.532662
23.444116 37.005736 23.349486
21.486093 63.915717 13.118143
20.210758 66.843808 25.069178
36.605549 33.612454 26.690297
20.752295 36.464380 33.451168
35.460004 41.162047 24.724758
40.579054 33.958923 39.738347
42.565415 68.808887 19.483188
45.539150 68.621968 21.000014
20.956174 51.329982 17.708471
20.869252 64.405030 24.909557
25.483370 47.631820 21.183103
33.413317 47.644420 38.168213
37.845354 44.532489 24.623462
37.026514 39.303123 21.177574
33.820700 36.782497 31.120934
23.269614 68.180137 29.069094
47.372098 47.461696 37.876773
39.950103 51.450493 29.516100
20.404109 32.219104 20.349955
29.614988 49.054469 33.267802
41.670448 48.009558 24.667512
20.235688 69.984628 18.294217
26.866955 61.202539 28.516477
23.184177 67.859177 38.899456
36.190690 45.482644 21.663293
24.814041 53.801059 23.837258
28.706521 65.311180 15.911404
29.328024 69.297470 37.478684
29.642451 42.404034 36.809095
27.792393 35.300270 26.130987
27.535189 39.060682 24.480686
32.762991 61.988133 24.814930
44.488512 63.361717 16.001770
32.767039 63.172137 12.453033
28.660327 34.943188 24.181979
46.206948 42.665365 33.330494
29.826287 40.901590 26.970920
40.369010 61.620931 24.816284
26.633735 67.195030 15.419971
34.793691 65.777803 27.901658
31.625644 53.088620 33.155172
27.403693 39.190325 11.172507
24.810272 43.758111 18.221083
34.055383 34.201157 11.377833
42.685053 32.853291 35.253819
49.603248 31.506708 28.579195
25.937725 59.403063 19.984062
36.313863 62.518573 38.378687
26.799462 42.444780 37.295809
46.003595 66.778806 23.118460
41.742798 51.732549 10.077047
39.606416 54.266314 29.749871
39.225907 44.242873 27.053607
32.006667 43.165297 24.465371
40.593819 38.724697 19.391545
48.540440 37.424115 20.494453
49.680205 65.008751 17.633863
38.048323 42.504075 14.911408
33.023170 35.653829 36.514754
20.826635 45.432810 39.973421
20.865829 52.548334 39.405348
44.089985 40.237608 24.175415
46.538413 37.853644 23.141505
31.985080 53.997834 21.202727
22.725305 50.207885 30.925628
46.194961 60.880643 20.071401
30.455495 59.160310 24.282234
25.616137 59.981327 12.272410
21.664199 54.538082 36.051743
22.304449 38.618652 12.800551
35.270841 47.699358 18.326774
34.687760 33.735149 25.759346
27.895548 41.051782 34.515032
40.967727 34.948445 33.895025
25.620956 41.501721 11.819678
42.115482 38.979816 10.534109
48.162327 54.577920 37.824466
38.598050 67.739098 12.237404
49.530901 30.810318 24.514976
24.027845 47.886280 13.439683
48.259751 66.451504 29.683292
48.799206 57.485014 26.114621
27.543393 63.612450 20.517910
47.003301 33.246553 29.694865
36.170827 48.509384 22.766163
33.629778 63.707042 13.695793
25.926121 50.741703 25.190250
47.397925 56.267739 15.767159
49.270521 38.885480 37.874337
25.251048 65.492323 17.332046
46.682204 55.896803 39.611156
34.172707 42.220129 14.042327
20.834589 37.759510 37.668273
47.598138 57.197462 19.010905
41.390730 31.148650 11.996546
27.069039 54.131721 26.784967
31.940839 48.028933 16.456706
40.757675 52.495616 11.942690
22.649649 41.123284 23.082687
34.310809 63.455233 36.978858
44.578750 37.599002 27.841388
38.384058 37.356607 18.323829
27.212689 46.197293 23.303479
42.204729 68.271043 24.065852
26.493206 41.484546 24.041951
37.647073 38.134533 36.560397
46.662463 35.263784 19.896427
49.024959 37.445941 39.710741
21.044193 61.331043 24.193106
44.735843 47.508568 28.975762
45.723270 43.796916 33.639486
26.403072 52.083953 17.301285
42.681963 38.712531 27.997043
20.869414 65.386358 10.024843
34.326547 66.138155 33.187129
26.247691 30.235003 32.631509
49.996245 68.087531 24.449069
49.057613 42.323646 10.910853
35.010921 42.587608 14.477380
30.934007 65.336339 18.510136
37.058348 54.593993 24.959224
29.810604 63.711290 35.899846
46.291178 59.550938 30.544130
29.916054 37.038428 17.334186
33.596744 55.075768 38.781814
21.983388 55.200933 39.966899
30.056240 63.502952 25.410554
36.933718 55.314303 32.600471
23.373499 56.921270 20.442157
20.797168 42.916611 36.621355
37.411933 43.732676 13.885194
29.258087 45.368521 15.442080
24.968171 57.674678 12.529422
44.180890 36.960902 34.155737
30.537085 66.654830 13.621434
39.617310 44.746726 29.217446
42.068289 39.886896 35.671423
31.468901 52.368366 30.193183
39.080743 46.590382 28.228857
43.274430 43.573619 31.971660
24.393834 30.580260 10.998360
31.213720 46.245472 11.851171
30.840210 60.339108 12.899060
43.672646 61.354710 24.076879
35.710885 61.462198 15.351500
29.804195 31.859650 22.925960
49.641719 40.474383 34.916853
27.787821 51.923905 27.046055
28.804876 63.090484 21.990543
24.094829 38.007961 23.357655
26.727027 47.346596 20.221818
27.220918 33.468876 21.527934
27.071357 48.920045 16.687471
27.469670 48.099855 19.220527
33.047953 37.687968 38.672184
43.415137 62.033177 26.411450
34.997816 34.594210 36.200674
40.304787 62.629485 24.102662
31.449904 57.149209 21.318632
47.074061 57.007951 36.510131
46.508170 59.872857 31.103666
28.279350 69.074484 28.333910
23.311097 41.044966 18.222896
38.175364 42.273259 19.302122
35.712730 60.675387 31.530244
35.467039 46.682717 15.441817
21.864008 52.757780 35.786542
24.651925 45.413246 25.230903
41.441839 36.752723 14.606073
41.811175 31.594037 26.479524
45.934285 69.039470 38.556187
45.321198 39.477104 10.723148
40.112928 45.030772 26.802775
37.030580 40.818007 34.648564
20.279389 43.092918 21.951774
48.172101 68.261332 26.796859
43.313591 53.860657 21.153281
22.333953 67.518123 36.052673
43.294841 54.678149 27.608100
42.315098 53.474136 26.922643
21.348276 36.222795 13.975456
37.493426 36.607436 29.117741
24.568604 53.512700 20.401755
46.170873 34.438620 14.921153
38.375194 59.801640 20.837608
27.076459 46.411830 17.749100
25.537712 54.013041 36.315380
42.621896 63.738267 34.742089
23.105336 39.967696 11.343533
23.954107 55.037420 34.668673
38.236923 43.856782 30.303449
40.334768 34.874532 31.022894
30.857857 52.743857 13.123973
40.861616 69.482756 30.880486
30.489065 58.877520 32.148824
39.559210 61.570685 25.261385
32.177051 62.459984 37.936745
46.885454 58.043947 17.853210
40.751020 56.654002 30.047157
45.059535 36.030481 25.292360
31.953442 39.169272 31.771341
44.623010 39.681069 35.692175
49.859482 65.766908 18.104400
31.864235 65.378932 18.353340
45.473790 61.707026 16.313440
43.947496 57.413419 23.428599
26.469045 59.097727 12.730763
20.743140 57.650684 10.222301
36.924922 68.909359 34.021903
20.061423 42.484235 17.968734
45.481897 56.606269 30.402385
46.987529 52.670178 39.901802
23.836296 65.729183 27.840925
41.438743 69.873843 23.281903
32.973994 66.823161 30.020240
45.060087 37.022278 17.117894
34.014230 34.419252 32.351556
22.084508 34.010782 21.276043
33.726526 65.064860 16.666291
32.848977 50.846564 37.697359
49.841767 48.264486 39.700435
44.845420 38.935959 20.901983
28.408799 60.949192 23.608555
43.445579 36.057196 18.626227
47.213977 39.036430 17.232184
23.251075 42.254260 18.512441
41.517160 59.187074 34.900874
37.680922 51.214033 22.488173
42.891967 47.281675 11.948126
25.933246 56.987234 20.173459
30.302009 54.388893 38.731245
41.755445 69.141869 27.493743
49.974854 34.885519 20.499086
33.373118 60.690719 17.565002
30.379899 30.538051 34.103322
30.099123 58.415580 19.064378
42.910733 62.311462 15.571865
35.300774 58.089363 26.256551
45.216973 49.991682 34.773448
24.133304 34.153171 20.047881
31.549943 45.253209 30.320607
24.070340 56.994628 30.022682
40.175315 60.938491 29.669950
43.696064 52.576043 21.540367
20.621600 62.836409 24.620505
31.457669 55.075831 35.494180
37.878714 59.656900 15.132591
42.439509 66.314117 11.763967
39.567008 32.191949 25.186465
43.456611 40.969900 31.321335
47.181563 60.520243 29.428248
21.400921 56.825061 28.739284
31.558294 47.523089 27.830445
28.944646 39.366164 15.639316
48.073417 62.968938 10.950055
33.482909 66.518371 23.209938
31.589953 59.932504 30.353414
43.741102 35.557786 23.790897
48.699213 45.628625 14.608764
36.838463 35.679383 27.962870
34.270772 58.310192 37.914146
20.308485 40.577032 34.707831
39.264270 31.253321 12.526838
48.404858 61.980450 38.514994
42.537514 43.971835 12.348079
25.345254 31.074087 13.879548
46.082821 39.680877 20.423484
37.593346 64.073787 25.225771
43.223328 58.862298 32.430394
20.041142 38.896860 17.227903
36.300806 67.454968 12.155185
46.748108 34.904229 29.118148
27.147251 34.551598 25.302739
37.285238 55.707492 16.106623
40.580329 62.476689 30.654621
26.346376 33.648091 17.589828
43.014409 60.617380 21.970347
31.752247 32.546741 24.597447
47.440927 49.937625 32.734806
37.197032 41.687258 24.610317
23.383092 60.981145 23.220909
23.882918 45.099599 24.260286
46.216682 36.783372 38.202957
21.453155 49.035126 37.720348
27.394542 61.290657 10.285176
44.182915 36.053866 37.075934
27.348315 31.073358 27.216831
21.648268 42.411774 25.119107
30.725498 58.896028 17.618245
32.997544 59.571937 21.527136
26.747052 50.963105 17.816580
44.515582 34.712020 21.211359
37.795328 30.044774 17.805851
20.435146 68.307848 28.377651
33.082806 52.043502 18.874691
33.278156 60.238187 21.962423
21.938161 30.471521 38.475937
48.680452 44.656216 28.753310
30.159078 42.930265 27.806380
23.244705 52.307683 28.016192
20.664433 68.073524 35.941619
23.126789 51.909451 33.894289
32.561579 68.468882 23.901975
37.528407 38.394953 16.940960
24.391878 44.933414 34.672054
22.399121 40.449885 26.535692
21.198640 30.825658 38.362085
40.574723 58.957965 36.192887
25.469705 52.299367 14.836712
33.364120 30.771124 20.232652
37.037252 45.565238 38.107443
26.652377 39.928482 20.803003
41.361625 43.961037 30.298438
30.704093 32.371906 15.068374
41.019391 57.168356 27.948222
25.524195 33.302946 37.619198
28.933660 37.339290 39.088162
42.929973 39.193329 34.523032
27.078702 65.204308 28.048958
23.233556 48.019370 16.297600
29.132373 48.573632 38.518509
47.913266 59.824350 11.807763
48.323344 51.589467 35.353809
36.327328 58.364507 12.389328
35.576947 61.569094 27.708221
34.621772 32.577731 16.817607
24.068067 53.650953 37.438931
39.170422 59.384326 25.001920
37.689027 47.119554 13.059783
21.174279 69.579396 26.271348
23.891671 53.612718 23.134798
26.926837 66.408280 36.098980
49.391144 66.781527 30.792394
24.772083 44.820063 17.456254
28.969131 58.120768 17.788701
37.981963 34.986779 26.049049
21.888402 40.755394 32.532864
35.281297 44.909065 13.849317
44.022207 37.654661 39.451223
37.990625 51.550513 32.506794
22.550940 65.574842 19.205291
25.312041 48.838740 38.683143
43.038022 48.754871 24.152899
42.072167 46.197528 25.447526
23.220169 44.768577 21.691712
36.011550 35.780064 15.929831
30.178201 49.953149 23.514801
33.323017 48.645616 24.033742
40.257239 44.796988 21.310070
26.248043 37.321053 32.183640
41.935514 52.140742 20.992794
25.868275 59.235115 12.905333
49.607124 39.118546 27.811084
28.766146 53.007716 19.557511
45.124958 43.015770 39.329512
21.129595 38.601512 36.486112
43.698838 50.016210 31.575107
45.342186 54.302315 36.269245
39.090370 60.028342 24.876939
35.814656 69.862820 14.152561
41.754523 54.069998 29.740103
23.352176 55.091708 18.623620
45.825380 47.563626 15.272197
32.703968 64.749672 15.489000
40.091664 33.287740 29.542076
30.881287 39.031122 24.099669
37.325057 60.736942 19.467016
24.874773 30.157013 36.017812
44.245093 38.262713 27.137189
28.938091 44.797082 11.372629
37.272157 36.034471 32.845310
33.867514 53.488026 24.659268
39.089153 46.930059 17.028483
21.747405 43.934269 27.320851
49.881974 41.713430 15.910390
45.055339 40.764630 25.651887
44.728968 34.342180 23.874808
33.739192 67.562025 30.086030
33.783364 55.008011 11.769476
47.196722 67.510291 17.390572
25.288042 65.442689 25.105031
38.516373 39.123219 39.653677
38.596501 67.091783 12.606607
33.415630 51.319308 36.396222
28.167029 46.224934 25.112408
40.635480 64.893082 30.367286
33.029905 54.979556 16.084504
33.371997 63.142378 18.306165
47.454997 30.559157 37.652988
30.748311 36.083342 20.754923
35.887449 65.264916 36.383508
31.116753 36.468994 26.944157
21.790280 68.505180 21.048851
20.311286 48.538569 34.624833
32.117265 63.200069 34.029530
30.304203 58.798656 38.359850
39.339688 43.042717 11.508806
49.151202 38.328661 17.933415
37.188254 43.618976 34.331163
29.656986 64.936695 23.434365
46.786014 53.032437 37.298253
44.571496 39.031797 21.731063
38.361129 32.405271 35.580129
30.097659 52.835584 27.404701
28.150827 33.850697 20.059525
36.204066 51.837368 36.433160
44.018677 36.145542 35.832187
44.771214 62.461011 14.469227
41.334701 32.685862 10.143566
37.534616 47.959453 17.962949
35.514671 59.041634 23.343175
27.371428 31.318257 11.670789
30.279571 47.674072 22.906433
27.854171 64.767606 26.773747
32.325956 46.006935 32.472156
39.603604 63.473311 19.869622
49.515509 56.276456 17.654843
43.342376 47.261933 16.011799
34.527938 37.718621 32.861736
31.143440 66.172102 16.118644
41.755426 43.198035 21.409477
28.249904 47.353310 39.019848
39.560153 52.021679 35.530435
37.325483 35.127022 28.708929
33.468061 67.223276 34.176944
48.939142 42.431979 30.045359
24.960342 52.553172 15.707405
26.338326 34.188410 16.998980
31.507665 51.647653 10.199362
27.191903 31.802215 39.581185
38.555664 44.340715 35.808298
33.880043 51.893517 39.741723
29.518687 39.905454 25.852639
24.048168 67.283549 26.633592
23.974202 37.868500 10.145038
37.404436 30.170853 29.357701
20.037312 47.903172 17.811844
23.274378 69.391888 13.759903
48.449461 63.644138 28.788026
29.311354 69.614324 35.818610
21.825546 66.042442 33.099197
47.176297 41.204880 36.501631
35.685813 57.928588 24.345239
48.674865 69.003763 10.025624
48.594016 55.114848 33.627916
49.918573 30.788188 26.317528
33.637555 30.088195 34.237408
42.142889 68.815359 13.007442
34.351253 56.101473 24.886307
44.881308 37.703723 15.579800
42.215501 38.684905 33.840331
46.272554 35.133680 14.382297
35.209713 56.304884 37.922975
33.452187 41.241608 36.693833
45.538020 52.185869 17.247000
34.450845 54.829891 28.633024
21.019280 54.503109 26.151771
36.857677 52.912017 29.642052
24.427232 34.555769 31.870428
48.623236 45.140832 26.486238
45.238574 31.115431 24.581371
22.524924 34.877362 34.595781
34.703323 34.564421 17.456918
32.006919 59.630626 26.569553
22.162398 54.459781 27.518317
48.990832 56.825124 16.528185
27.627204 31.314478 33.139369
35.015021 42.372136 24.622215
39.958858 51.089900 22.328893
30.098789 36.406612 36.041509
33.954252 53.790058 15.477230
44.720187 51.280188 24.227510
39.797821 54.606597 19.842652
34.608258 54.055401 24.619480
38.171570 35.349772 33.232284
29.517356 67.443311 17.382641
44.382876 43.996161 33.438616
28.748828 43.118446 27.428712
48.451844 50.682888 28.693588
21.128859 62.763726 23.279153
21.948544 32.009348 11.446994
39.927291 56.438578 25.548894
30.660976 48.956184 11.333072
39.660897 41.173596 25.681565
42.706984 64.107816 25.570481
26.621841 67.269281 26.144951
44.771613 47.671256 23.705609
20.738993 56.264741 17.632195
36.116787 34.309316 16.813933
42.709316 60.478075 11.748167
39.901964 50.040505 30.877164
42.597966 59.026798 15.121542
20.462815 42.928793 30.144588
38.180887 30.028177 33.063864
37.787048 39.923525 19.395229
21.889060 33.296452 16.295358
40.987417 38.268546 18.948280
21.624277 50.665601 37.133894
41.253714 55.018314 10.554793
22.610192 45.743088 29.513032
35.025102 44.107423 17.312588
36.642483 67.717354 24.751426
30.928200 48.879351 29.556055
26.473340 59.975467 35.571285
33.307100 34.332507 29.819735
48.641858 37.210527 28.640466
26.708581 37.881312 16.581510
29.944116 38.323343 39.066601
43.970587 39.446785 15.925286
24.755348 43.997736 38.361615
31.198147 48.670928 30.319832
36.725205 59.570803 20.197753
27.947203 53.652821 11.797290
25.612130 59.276127 13.447982
46.714402 36.011530 10.227935
33.837918 56.596337 29.238729
35.642758 68.793518 37.593220
24.201443 62.391507 13.044035
44.573133 63.069303 18.314393
45.611225 31.993940 38.667919
33.367525 46.617298 38.670954
44.761229 52.405120 16.098812
20.201145 31.984253 28.276364
49.743963 52.092938 24.090768
20.475481 66.967888 33.357650
31.386222 35.636843 27.093601
23.464747 37.087504 19.597054
35.282090 30.489433 14.991957
22.846654 61.833516 23.626965
34.735639 57.554004 35.138713
21.284707 35.732530 11.164757
45.348828 44.016935 37.254469
34.400922 41.086528 33.305267
37.727869 43.797328 28.147411
27.859901 37.063275 14.224379
21.154042 50.185273 15.061269
37.877025 60.013395 38.516440
42.832821 65.192824 35.850233
42.737379 47.730643 34.221363
47.763109 62.128924 23.505692
35.870331 53.134482 27.846574
36.670837 41.081145 38.987099
47.006453 56.496459 20.429163
30.090410 30.169653 14.740786
40.300150 45.300386 21.324780
20.279504 49.113897 13.729596
34.462330 60.080962 12.489900
24.026165 66.229237 19.605532
24.817939 45.004594 16.386037
41.606455 56.032084 27.086533
22.214920 36.871960 21.357609
48.648585 66.408501 15.407370
33.357164 53.512874 19.496405
43.147785 50.363114 20.315173
39.016768 61.305250 29.926971
36.660485 63.968901 34.352832
33.811584 50.480002 33.396321
34.854821 60.272887 12.045624
22.212848 61.410858 36.844324
23.932418 58.852681 31.543209
31.255873 57.206016 24.749772
26.324866 53.092842 27.386713
48.829190 40.784257 37.892438
26.934714 62.816925 38.157257
31.067050 64.335160 23.165685
46.918018 35.421383 23.665281
47.520779 48.063506 24.187959
27.175764 61.570349 17.758011
40.032164 52.282438 35.513766
40.043418 55.321627 28.637336
28.488535 42.983937 39.658295
25.707444 50.372379 29.201105
35.704345 38.205839 13.853397
30.514001 33.159321 31.268353
35.385061 55.970340 23.765277
32.436172 41.635733 25.659272
23.679476 55.548904 32.660728
36.443357 32.127873 18.208854
30.022775 49.369978 37.332878
33.947848 36.653550 17.434262
43.732989 60.445531 22.376516
22.320911 43.209806 33.448840
20.203819 39.055453 22.395018
26.721471 57.319967 32.186754
27.615429 53.692703 27.736291
29.846834 35.449514 30.361081
21.241647 59.816083 32.808381
49.008709 51.263026 24.478559
22.418882 64.182257 35.069553
24.360271 57.484137 11.295621
24.792884 38.609467 37.965025
23.658059 42.852531 12.167675
38.345764 68.118195 19.394806
32.570314 68.807256 17.618684
28.825755 32.894901 27.053476
30.764615 31.518911 19.152631
41.719250 40.810520 14.651828
20.488942 47.367397 26.723549
36.340293 68.440160 35.207651
36.915562 32.702991 34.982219
30.596749 46.530487 34.410919
37.522178 62.882173 33.111219
38.114888 41.327967 27.437430
20.949728 56.017861 25.029743
27.852389 51.172435 27.376248
28.920918 37.751711 11.391076
40.323273 52.513465 33.559996
26.400338 55.608056 16.640804
41.592744 48.254864 11.207151
35.571224 41.042998 10.394631
25.905775 45.546051 13.234231
42.292768 65.013997 19.882676
28.510681 42.213171 33.837577
37.975627 56.704761 27.910389
39.464251 49.396871 10.250975
39.515540 44.511445 28.435696
33.963952 46.982062 38.071059
34.598561 63.249487 32.930696
32.566758 45.241708 13.486182
26.485520 56.297317 12.404196
46.957786 42.286061 28.046153
36.675603 33.465662 29.237283
48.120895 31.616091 33.289456
27.432582 44.943165 14.322876
39.900220 64.628108 31.897490
40.727413 48.782810 23.994308
32.365670 66.257657 34.905546
34.525893 43.361415 20.589918
39.418213 31.115724 23.658193
31.336523 58.418774 15.250418
28.316167 65.104462 18.086354
39.367482 51.261251 33.030091
47.442755 35.368676 33.528559
30.134678 59.421377 33.621903
33.420084 54.458644 31.173278
27.643109 40.414839 16.888478
45.299721 55.812621 31.716273
39.554240 59.569417 39.918938
31.229095 68.339146 10.883807
26.418260 69.185020 21.148418
39.113518 52.900426 26.096594
23.010261 64.704464 27.834301
49.932791 60.346894 35.659378
35.251532 61.256414 24.983874
23.002153 37.911418 22.233213
28.729589 43.916993 20.984937
31.679610 61.684896 17.757546
44.045415 43.980446 34.328374
22.320872 67.854187 17.060658
49.194822 47.030847 24.168762
26.528541 67.321440 23.772702
38.059017 60.710255 23.934175
45.507559 56.242369 24.892789
37.276072 54.434705 39.671933
48.813117 61.478414 39.056439
49.164003 57.606464 31.234020
31.448925 32.231567 15.932667
39.828892 53.391054 32.462617
46.206909 30.338055 26.396309
36.232367 48.359359 20.794003
44.132779 49.766289 14.938103
38.902454 44.958558 22.010778
32.371263 69.450674 37.794105
24.252304 64.598167 11.691263
40.338739 44.966615 38.687406
28.599095 49.303632 31.509703
43.987512 31.286052 31.462815
46.551752 65.020766 22.084994
46.250360 48.482186 32.824012
32.966160 56.228760 31.475939
42.289404 53.165730 14.697153
40.362088 55.047333 15.031568
34.874100 32.120962 22.876868
38.324163 39.361984 12.031290
47.993879 59.291158 39.464300
45.844813 49.353430 29.040033
47.256288 61.209530 22.902620
34.180489 66.589131 31.369096
24.175670 49.728478 16.228645
20.236548 67.753645 13.530400
27.934356 63.379731 27.795692
41.396142 68.122906 37.885880
28.277846 59.744497 20.816434
24.529761 43.823976 39.936611
37.975740 56.429551 21.573073
22.025646 66.018459 15.376422
49.794528 31.261233 26.455985
21.191391 45.454538 38.184263
43.880923 61.715661 36.371888
49.316274 34.640674 20.028391
35.294408 30.699048 17.278959
23.453908 42.777464 37.618338
44.775677 53.530695 19.902638
21.330879 44.439402 29.740197
27.969589 43.701271 10.253865
45.638761 52.496655 18.055944
33.705013 43.832091 13.815042
39.743268 54.468205 28.288312
23.704829 50.886553 15.313001
24.192765 47.080211 26.913557
41.977439 46.769181 37.386936
31.422480 36.429274 28.967161
36.843321 57.454421 28.062866
29.162641 55.738969 39.021997
27.804699 51.319418 37.547454
44.218460 41.004496 31.809175
36.047369 47.985572 39.441594
42.174225 49.052728 12.116543
21.528449 40.805002 18.355847
28.364417 37.518568 16.307065
39.147231 43.546249 21.461249
35.063636 47.696259 11.926135
25.241250 34.392496 26.914689
25.367190 56.122959 38.876844
36.188325 37.490782 39.555175
36.256520 30.655432 10.431820
37.000836 69.900327 12.809365
30.702435 65.893162 25.354761
38.246270 51.292370 12.208029
30.169427 49.233691 19.498418
29.668525 68.243576 14.876988
20.640993 42.615012 39.499302
42.687892 41.018411 25.956979
23.853196 54.379438 10.658072
35.005631 52.816818 16.131949
36.972513 33.935690 37.426084
30.555351 58.221721 19.609112
22.028901 47.950399 26.075209
49.929487 60.053869 18.241031
35.752451 31.772445 11.840520
30.454820 67.657945 28.324913
29.083087 47.353751 38.691025
25.851473 46.022290 21.532044
44.053969 63.551148 15.279260
24.840784 53.363092 12.658671
31.888507 60.331228 35.657203
32.594091 37.329350 16.048822
33.623923 62.713993 22.001386
24.159447 34.833744 16.053016
23.949947 64.948770 16.791477
37.166131 32.987181 22.172406
31.112082 66.264639 33.457558
26.779741 36.985206 30.960447
38.613069 49.927054 17.195280
31.423498 44.070794 29.076821
31.755981 42.493406 10.276980
23.810858 62.426799 10.294464
40.371680 62.752529 17.783610
25.956302 39.682528 23.102174
46.564210 33.738033 30.208139
38.696701 36.859413 26.126047
28.409644 38.646291 19.253012
26.774727 55.555665 31.462840
39.348074 36.927592 31.971403
25.531940 66.000457 10.040091
25.875184 53.149871 30.178864
23.269949 31.616964 33.278171
29.932675 53.554860 13.999722
48.820633 38.082857 32.919130
31.395480 48.668108 36.876130
35.662646 57.110515 37.336156
42.065581 57.534248 14.530841
22.398211 66.296025 17.480885
46.464676 48.674818 22.642061
27.316687 62.286133 17.405051
31.354602 42.403557 18.356057
33.073445 32.859112 18.471747
42.542693 53.346170 22.216903
46.468108 64.300823 29.031642
36.757525 66.276769 26.493368
45.909701 62.307337 32.628712
32.569742 64.954915 17.277463
43.183596 67.906390 17.253536
32.326019 36.598643 34.751145
20.383121 52.841540 11.577437
30.974066 38.917650 30.490550
32.661560 59.744695 17.706185
48.303262 64.555023 37.470643
38.617526 37.412759 18.100953
45.054004 47.437798 24.086103
28.924430 42.143516 17.713447
49.816871 50.488959 36.792354
45.007996 47.969933 28.224963
42.652363 43.899845 14.126198
30.303629 46.960390 25.216074
21.004608 63.480171 25.217992
22.183674 44.510469 34.594884
47.796310 33.743525 19.247986
44.398467 48.622054 16.482353
45.666352 40.977207 23.193670
46.129606 67.625656 39.623603
43.699289 40.751220 29.786588
31.277608 61.643442 37.023307
30.610175 69.672882 17.456301
21.443511 35.119247 15.561743
24.174219 49.395663 24.285670
25.432858 45.511829 28.678575
35.346968 47.593625 23.574210
22.750750 47.657919 29.776302
33.639282 58.516234 34.993279
45.178650 31.777701 25.173335
20.838972 37.493416 15.206703
23.270857 61.596219 15.620150
41.278850 42.660487 23.610402
32.565383 46.863539 20.767224
34.611152 30.352940 37.431096
29.784086 60.405127 31.907763
31.949636 44.871142 33.242547
24.314413 45.513123 14.370566
33.561582 48.788121 31.427499
46.905800 34.371018 16.815507
38.965790 32.889674 31.965591
40.460132 66.242423 15.210563
21.715741 61.933856 37.575636
27.195432 41.894203 29.714293
43.051466 34.700386 38.787836
39.407993 44.459573 15.096051
44.767659 36.426976 23.895383
38.967586 31.970982 26.579126
27.633812 48.382434 20.132231
35.247401 45.409249 24.175315
22.594057 48.677577 17.304667
26.858510 34.477103 12.508113
30.349312 32.717469 26.125174
49.005255 31.414014 21.981799
21.713241 50.201917 11.504707
44.152610 69.719050 26.766667
43.800790 38.628559 23.842946
48.910510 55.061263 17.271302
45.497395 54.792100 12.716408
27.341508 51.760417 36.778070
47.396348 50.430046 29.472749
27.652270 52.859910 22.009768
44.995699 51.234877 25.476535
28.129303 31.298521 33.320792
32.883340 31.670093 24.675811
41.402773 50.698400 15.900928
30.087900 32.002523 30.522810
32.132164 45.384129 28.657128
46.955711 45.252429 14.424106
39.061268 31.642915 33.049157
34.648593 55.735268 15.983290
25.893648 47.327192 24.351946
48.304356 59.079555 25.420058
49.816161 30.686360 18.181175
34.008203 57.013695 23.298760
48.154078 32.102498 16.041470
25.768649 34.384114 21.791378
27.698992 55.308954 37.017972
30.314591 39.172709 38.911216
36.196048 37.971912 34.584078
44.471720 42.645685 31.690097
31.157131 50.634655 14.312666
25.544687 43.996330 34.755500
43.387141 56.544363 35.082382
47.964959 57.169048 29.615543
42.364883 66.249149 12.484539
29.140630 32.739552 33.738611
45.248373 54.333842 31.950132
32.116929 37.253656 14.337116
20.707845 69.259032 23.768550
42.806301 45.420299 15.560281
47.118587 57.406365 20.048346
21.968559 38.654522 19.175227
28.324743 48.981975 19.976362
45.468838 38.735498 34.865203
43.303080 48.366786 14.414692
49.745687 49.163159 34.155873
25.782013 41.234137 12.209119
37.414760 61.061043 25.951595
45.613886 48.977574 18.131756
40.538001 57.117245 13.431762
39.114193 36.145479 31.271016
46.222394 61.078998 14.943331
29.203573 53.941334 38.857490
36.370622 52.616967 12.897779
22.851074 55.411378 34.978506
20.967545 50.555834 17.610934
22.321091 40.758376 33.054890
33.586765 51.771792 33.399360
49.940038 67.922655 37.522302
30.608207 47.799314 21.991109
34.218581 52.206969 21.317633
42.892834 62.538538 31.300677
43.218749 45.255114 10.484383
24.768089 63.588412 22.541153
32.512841 56.020230 33.665583
43.029849 52.708455 33.370042
43.678221 49.186489 19.285841
38.063070 36.699633 14.029854
40.752298 59.917100 23.582069
38.874879 31.269919 29.620097
46.277192 33.738533 32.861723
31.915928 56.963617 22.008954
22.546098 35.322578 10.966810
20.383504 58.655255 24.712462
25.527326 57.485148 30.128765
39.616152 32.050774 33.593243
30.112868 66.458641 30.329909
30.829699 48.487343 38.338196
33.040878 46.135599 32.887312
45.448474 51.420707 32.988705
30.315837 37.057168 25.786577
30.253776 51.226055 10.925669
49.981797 58.391006 27.029330
29.006478 41.318735 11.989142
24.820111 34.923292 27.126024
46.083717 37.231582 39.002511
46.090853 54.521933 27.920796
31.578977 38.950694 16.205948
44.432247 61.993705 38.642213
25.329013 58.449460 11.386235
21.328153 59.395338 24.770893
39.825021 67.487373 16.513268
24.998072 56.054201 27.295878
26.460208 37.173288 11.761780
49.652777 52.388433 30.819226
23.028544 69.427554 30.688873
48.397343 57.585929 28.860451
26.588446 65.933482 39.750735
20.165071 58.933353 21.293197
47.314298 57.980655 29.161816
30.031641 30.367927 38.175051
21.422622 35.183636 10.521067
22.760762 60.205033 15.822288
27.478223 60.302394 10.915752
22.734775 36.054947 23.520275
24.971071 59.691028 13.350281
24.152049 37.884544 15.027101
23.596759 36.143206 15.273034
34.360256 34.499500 22.830772
26.667742 52.839865 23.966751
24.371775 65.468563 24.516219
43.632220 34.522808 39.977546
47.431169 33.576956 28.117851
20.700410 68.209649 32.429380
40.925003 62.523628 15.514466
38.564980 53.669135 20.554937
30.282860 67.924092 30.786168
48.090396 50.722581 32.248981
38.594486 56.433623 30.370216
32.376814 33.265642 22.058726
28.235516 49.148909 24.310102
35.044935 62.101319 33.336446
31.002143 68.429779 26.020715
20.787939 39.817515 11.649200
26.550424 34.085783 18.999281
22.489300 67.107029 19.622804
49.130883 38.997131 16.677512
36.668089 48.508267 32.678171
37.603058 39.575363 10.726750
42.030224 68.442171 17.934115
23.767697 56.028754 26.484319
35.092587 43.095039 26.391702
41.961379 48.067081 10.305072
40.863523 30.890813 29.286156
43.753712 55.965471 28.514688
24.378879 35.800520 18.489793
42.037646 42.132264 29.152085
48.855086 69.771084 10.491549
43.191473 31.939368 36.710361
45.973875 38.681045 29.072725
39.746376 36.351427 29.945117
26.129951 53.579753 10.253509
21.023000 61.122530 11.729727
36.919159 60.365103 10.453244
32.330359 55.870931 20.268370
36.019856 61.649494 26.882675
47.420847 35.560575 31.022198
41.252876 64.700019 33.104427
34.271732 63.376596 26.815994
22.468805 31.759050 18.862623
31.158919 48.863208 12.431592
25.216806 55.370747 16.111165
45.280654 39.883756 27.230299
26.085263 44.392516 22.179237
22.432509 58.722755 22.070614
39.954764 46.241126 30.205118
45.764369 31.021966 38.192382
38.740257 37.716115 37.423668
29.278618 51.006208 18.257674
40.193511 41.607530 25.315694
37.904767 43.344891 30.028075
42.227693 55.362738 36.847612
25.561384 66.250571 38.710947
23.478111 64.536436 25.637578
42.392024 41.344500 28.749145
23.043944 57.621183 25.631704
41.043647 65.615085 13.090854
39.482700 54.705565 16.088906
29.954056 41.265638 13.328111
30.772335 46.381939 18.581733
29.725973 38.352807 18.683788
25.209654 44.557758 20.986843
39.866887 40.331312 30.920540
44.601063 64.283887 14.072279
32.160085 65.665299 12.026412
42.293714 54.575954 26.584645
38.841488 37.518671 25.764776
39.390607 67.401907 18.585194
38.591167 68.609610 25.132312
28.758885 35.680356 31.394560
26.014943 50.333085 29.204567
27.295841 44.337012 33.520171
41.634197 39.345930 30.875301
30.427532 43.755469 21.155211
42.041737 51.593396 20.610461
33.799069 55.450994 28.684760
34.154124 61.104005 37.567130
37.180725 51.490543 30.680327
45.754004 44.727349 26.586043
49.024726 52.048675 39.624061
27.141080 64.007176 38.127473
23.458864 44.470902 21.637154
38.628651 49.022653 15.691187
42.216385 67.770394 13.291010
49.396119 60.973283 29.622938
24.368766 48.636752 13.438309
44.844489 64.240491 23.648375
30.999143 47.251304 16.811554
41.322061 48.411104 19.592659
27.361726 35.303780 20.105840
36.563311 55.860614 27.147880
32.726009 44.789073 26.046102
33.728278 68.582838 36.385325
48.249225 56.284013 16.688530
22.670711 46.660904 24.218622
49.749537 47.078398 39.216869
20.860162 39.143148 37.151160
34.554853 53.726231 19.290523
44.638197 56.783436 32.308807
47.429747 35.167433 20.652334
31.448798 33.188121 37.132973
24.438703 55.683179 34.564831
40.178449 60.203307 20.237649
26.155172 48.792355 12.440072
40.687860 59.768404 12.007364
21.798241 45.922870 15.197439
34.268430 56.443464 18.845603
45.787172 60.349097 30.459283
37.458455 32.065610 16.935516
43.328922 32.337160 22.305489
42.577200 59.507842 33.094577
23.653765 48.546616 33.927470
45.833230 57.002589 23.929999
42.447942 57.727050 38.513962
25.056063 61.873207 36.161089
23.656237 31.483816 26.769386
28.794879 43.194616 36.475776
40.819599 45.235370 10.227273
31.908922 69.824313 24.834701
44.219792 47.837523 23.409289
22.559142 44.026802 29.984430
27.839985 31.898002 32.745602
26.189381 33.018972 25.683121
42.965310 47.381255 35.666774
20.948597 65.592409 24.384238
36.769879 38.890327 28.194174
32.035527 47.298619 34.390319
20.311141 48.325114 36.738398
27.544222 47.201398 26.228609
21.034407 60.237599 35.980284
28.780794 63.832224 19.570965
37.053374 49.587494 13.728087
33.692433 50.861509 33.817069
26.682267 53.331133 16.697998
27.307283 60.646275 24.708073
26.752709 50.736246 25.893857
38.158919 50.733157 35.887441
34.052946 61.146458 11.765184
37.988486 65.783864 39.194942
23.510247 57.563982 17.794950
23.511683 30.173397 35.037926
47.466124 59.752919 28.146291
43.266403 41.271642 27.939943
46.042178 69.914083 19.136716
37.111991 53.780835 31.127882
45.717748 66.545418 33.530761
46.857188 58.945288 33.784834
20.869546 53.353974 30.598972
32.985715 55.421630 31.168248
20.134497 37.495070 31.282302
21.611102 47.987171 31.107034
45.142940 60.527583 21.667741
24.724972 48.696853 31.601036
38.371680 39.904007 36.519152
24.929940 42.427705 16.240161
34.730742 60.182686 12.948326
44.870143 37.294067 32.208312
24.349866 34.517095 37.888628
44.671464 59.335973 25.826671
28.698493 53.516402 24.770934
27.885689 45.493555 25.957665
29.053135 51.268945 39.866466
32.593347 52.430761 29.026362
49.936256 48.373541 11.228514
48.612200 37.014965 14.718051
22.523780 66.971735 33.745379
33.188129 62.051888 11.950074
27.270527 40.573445 24.494744
31.847112 52.055176 39.317065
32.579893 39.724742 28.457169
29.231307 54.985694 10.202810
29.004069 45.362331 29.198689
47.871476 50.702752 38.165197
22.666483 62.637019 11.932256
42.028055 53.777921 36.654549
37.745464 35.310987 39.916873
26.931672 57.191781 27.647181
23.860328 60.797657 27.470644
47.123333 54.532510 37.414901
38.735641 51.526034 25.492249
20.935629 55.792342 29.772925
34.617572 53.640592 21.289656
24.698319 62.273676 21.526949
33.216571 59.812552 15.805213
20.335009 31.893693 17.897857
48.618438 65.586024 16.111252
38.185031 51.490469 29.802746
27.242903 46.136540 24.009797
35.611297 35.518262 30.669647
47.440591 51.479794 11.593614
36.923960 46.121425 36.413811
30.802265 34.257790 16.765260
40.875767 42.038749 39.543459
41.025129 49.589045 20.818048
34.185462 67.227529 10.483126
47.550029 33.430967 20.958330
41.305148 55.550830 39.310638
30.308636 53.005056 19.268130
31.362602 47.496795 31.028590
21.116978 53.986364 22.392066
46.477651 59.037018 15.133494
33.363730 45.450344 11.503263
25.696525 31.195104 16.481953
33.653172 68.294628 30.340419
41.994264 55.944981 34.055603
24.846804 65.246563 12.360130
32.530080 47.958615 25.240655
48.322370 53.033692 29.981788
45.181196 51.254333 16.746160
49.171484 41.846930 33.847121
27.496611 64.816045 32.643265
25.359531 58.680200 31.520227
47.551408 62.150811 13.076964
20.718719 36.462973 27.400754
38.113922 36.913348 31.365547
34.852323 46.362750 37.605524
25.808163 67.460604 29.797460
40.723013 52.283529 32.715392
27.183892 68.550136 11.843429
27.690163 66.751085 31.308093
27.709245 48.094082 34.538541
32.594109 48.478435 14.065453
23.279865 54.399078 25.257817
31.576861 36.357513 31.903731
31.618347 53.339875 19.206057
39.041022 57.992278 14.670706
36.448362 33.215410 39.328648
33.929937 36.240445 11.874047
49.292293 64.032770 37.280916
44.937983 61.203674 17.647992
35.672612 59.072818 10.639171
32.479251 35.395036 37.065037
25.775328 31.919996 16.440795
48.263432 65.123824 17.993897
29.430299 51.588511 34.240634
22.773124 59.475371 27.650530
46.831240 30.778780 10.581081
42.879785 33.221034 29.993311
48.248988 48.161262 24.714068
46.850264 54.946109 35.335328
46.768822 68.621870 35.646164
49.057933 44.475155 39.094092
41.264452 69.071700 13.747992
23.836562 53.681409 12.450332
32.748439 57.154230 37.667174
42.376579 61.324341 18.950488
26.693730 36.666302 19.063245
26.957686 69.046942 30.899575
21.863140 60.756421 25.338248
28.419591 36.447315 34.520833
43.508063 34.307842 19.737541
32.503525 61.078168 35.138430
39.819743 69.997485 39.003456
36.416117 37.298842 15.230996
28.096738 65.595792 14.864122
49.148517 69.517650 15.500704
20.465922 38.567094 15.180848
49.580373 47.862126 37.837049
32.905708 34.088394 13.309142
47.686408 59.957504 33.247463
21.948545 63.177038 19.626827
26.760172 51.139192 28.434285
41.087873 61.499848 10.619502
20.353445 55.012672 25.249661
34.477496 42.222358 24.064813
40.589449 36.769322 37.536647
46.308714 48.569224 37.105215
41.828075 50.551489 15.826431
30.251314 38.524408 23.284555
46.852610 48.030781 32.754268
31.797331 38.333298 19.991930
21.768608 50.495575 34.164126
29.918855 65.684939 13.596000
20.834298 55.932855 12.784232
24.652764 36.831054 39.174179
36.212954 31.360661 16.309680
25.398941 68.350449 15.876052
38.289423 30.267906 11.382491
29.656473 34.086170 28.996118
48.707333 37.142448 38.802676
27.122548 47.035801 28.296682
40.181326 41.377380 31.173712
34.646458 52.829537 36.573033
47.546439 61.919783 18.898652
22.518850 46.242508 16.403606
35.164769 45.739689 37.703663
39.097386 56.693666 29.267442
49.383036 60.898060 13.574686
26.729171 53.472293 15.499490
45.949344 53.301020 32.136101
28.618480 43.847345 11.653838
33.425228 47.308390 20.613152
48.726491 69.432754 20.382565
28.131767 45.559800 21.872866
38.874215 50.713153 23.292634
27.526340 40.400816 19.799568
22.166203 65.883373 25.786167
35.913936 55.879681 25.828060
44.330943 44.407381 11.547392
22.153685 56.945579 28.663556
24.520368 33.319344 26.287976
22.864566 63.901908 34.641693
31.030868 55.210539 24.093949
28.666021 61.205046 21.549698
28.706777 64.724022 30.546597
32.557554 62.956332 36.506110
46.862721 44.391761 25.552059
21.434870 62.127812 32.617290
47.653763 55.337491 32.492316
40.907772 68.163773 16.528301
46.266697 58.960935 12.643853
29.899758 47.284589 13.095068
33.240721 40.614278 24.870375
43.160413 60.134742 20.791013
26.693211 39.258460 37.575620
37.813357 42.859312 18.551170
43.563261 53.251511 36.498585
39.265274 40.154148 10.494986
26.657411 43.004270 12.378850
28.568297 43.499996 11.909130
49.214092 63.686593 16.295641
27.781538 58.325138 11.465815
26.260728 52.095122 35.937555
26.253411 33.339770 39.470931
31.488929 51.735496 22.376006
46.629038 67.599459 29.306686
27.978877 46.053057 12.300275
30.876771 33.423025 14.759374
31.103635 69.932594 33.066195
20.753471 64.094270 23.874720
27.286414 40.343801 25.486003
31.227939 59.581641 35.156528
41.567464 30.916170 12.799655
29.007213 30.392214 26.998500
21.040322 48.537488 15.810448
27.367812 63.107744 38.444337
25.476812 43.182234 12.455327
38.895668 48.176712 12.479970
47.650177 30.823915 33.908280
46.302472 61.712759 32.333522
30.701398 59.756275 19.000946
23.908108 68.354565 30.006210
49.889901 51.664322 22.164395
38.087781 58.432452 31.991849
45.982453 55.424897 14.447769
39.593837 36.464879 17.594261
42.785963 54.174310 22.147719
41.506169 68.698047 10.807270
49.157309 36.962249 15.038534
37.972483 60.139756 16.865641
45.815557 50.400769 36.665535
30.980273 49.120693 27.939738
40.894297 55.176414 19.501775
27.656285 49.131247 24.203232
49.986902 30.782641 21.284041
24.225177 55.299298 12.536948
42.525263 62.570405 25.122265
25.317620 64.354598 31.039653
49.792691 33.569883 38.564433
24.336829 64.517141 12.196334
40.266526 40.375786 34.850801
33.317683 52.365205 21.705862
34.938617 66.381431 14.475493
23.045706 51.332157 28.800103
41.564109 32.265424 26.734806
44.702142 39.192748 14.619516
29.240826 40.133070 28.666555
43.881466 56.933407 24.640784
47.734700 53.327820 31.002940
24.317326 47.844283 35.939929
47.252799 51.684875 14.862269
46.472072 40.027841 30.133269
33.084565 69.235242 35.419551
26.725991 62.483869 21.020126
31.956736 50.723905 23.499116
37.007264 58.281771 13.338406
43.668741 33.719293 35.788569
45.729002 44.179427 17.095151
23.642680 60.941783 14.704318
24.113050 36.432268 28.211585
25.826103 41.334436 25.828743
24.091862 61.644270 33.745926
20.737509 59.142211 19.135540
33.214069 33.290659 10.503301
24.495495 32.662515 29.880354
33.692828 52.497894 34.519112
40.388274 57.863019 27.684827
41.668418 31.307093 19.845134
22.269196 59.554476 23.112610
47.408140 39.773944 25.978367
41.584130 69.509042 31.713835
23.331816 66.700598 17.412223
37.775855 53.529695 27.607864
23.156904 51.606613 19.789379
33.224745 43.029478 19.243593
48.728334 43.460844 34.901291
34.776608 47.753873 28.948375
42.354363 49.039393 31.744761
48.579320 62.795937 36.196014
27.819466 62.997125 36.198521
28.759545 34.348763 33.446719
29.502019 49.315392 21.917498
38.307647 48.553102 14.148517
34.979403 67.688020 38.858264
47.342734 52.091660 10.855369
24.345952 33.541482 30.730479
47.934284 50.640964 32.471533
45.638009 35.724566 28.042361
23.848879 35.496424 19.237889
31.048275 64.136286 23.244544
26.123005 38.569794 23.926955
42.543009 61.899277 11.177458
30.054208 35.132597 34.419303
36.759360 62.638636 12.172845
42.060425 63.201115 16.102145
39.754579 44.052369 27.382716
46.210109 34.418967 18.889662
31.613471 32.707193 27.946295
24.388492 60.761103 25.927414
33.855955 46.261413 33.214617
42.182483 39.203377 39.773741
20.626172 64.850851 35.782990
45.651521 59.447196 36.203243
25.484583 47.999101 28.099957
31.230868 57.626003 33.497050
24.503877 41.898136 16.832514
29.916589 37.879439 34.425097
31.417260 33.253308 22.319189
40.351377 59.706656 11.908498
22.596636 42.434248 11.742871
25.230804 54.342708 34.656164
22.143987 51.631794 37.570038
22.078549 44.035496 18.348027
41.537822 42.807749 14.631004
40.778285 32.472936 14.255618
26.651985 31.437557 11.944692
49.141955 59.872981 24.424396
28.425648 69.575285 36.289433
40.087454 33.044787 15.686300
28.255608 55.547435 17.361483
33.300180 49.533286 22.471252
25.060939 51.604234 26.513574
43.295368 49.857029 18.428411
20.443173 44.462058 23.509068
20.291513 39.062842 27.515677
23.890043 30.240131 19.940318
39.209905 56.052222 28.704837
41.166685 53.766567 16.536484
31.772128 49.545715 24.039674
33.026454 56.959445 10.890899
25.609202 60.310971 25.189044
39.361110 32.997881 21.013753
33.669801 60.580804 29.743677
26.940649 62.476876 30.751653
25.738884 32.460671 21.275217
29.017727 52.463741 36.836663
49.988339 53.221203 26.461564
36.335669 50.494495 22.433196
44.844382 46.993562 39.913621
20.301765 37.252369 21.436376
45.259764 68.239479 36.242691
25.752652 59.909826 32.449475
27.159146 37.877210 30.749756
35.443332 43.312007 12.646148
47.078495 67.995426 10.811999
32.414290 33.133065 17.838764
42.303192 61.580709 32.125211
32.640654 56.045356 37.942109
43.588007 51.342813 25.057127
33.085893 46.625102 27.320536
49.803542 57.923954 31.701498
42.468989 54.597617 25.349799
27.341434 38.698517 29.295691
27.611216 67.002040 17.009379
46.490855 59.330761 25.542694
26.666677 47.120518 36.356834
33.944336 30.031234 21.566954
41.492000 31.670073 20.415900
34.276832 69.822025 36.090029
20.426572 55.496180 29.547469
21.888183 47.057311 11.696016
40.352067 30.317058 38.903026
44.504393 63.427243 33.028512
33.930717 66.034881 22.412616
35.261936 43.532431 13.630890
43.862175 63.177901 13.857052
25.938824 49.829830 26.188244
38.102966 39.465573 18.046614
34.235784 51.356561 28.671792
43.878309 36.077750 20.513400
44.269527 41.720928 37.025896
38.105599 32.723627 14.662195
36.903383 41.749497 23.837627
24.248507 35.053315 11.413239
33.769508 31.584354 32.402504
47.800550 30.490415 16.813955
47.535661 41.272808 35.507735
47.721454 43.747989 17.530843
27.894824 38.635700 32.815131
20.910352 47.458929 19.704348
24.531583 30.867335 30.629993
24.538304 31.409073 12.400819
28.336919 57.964781 11.056262
49.892026 46.566842 30.956806
42.776648 64.819592 36.408794
34.614626 48.227599 23.072350
20.038362 50.483025 37.687251
37.910881 36.927028 30.525071
46.329786 69.614329 21.996299
29.408400 45.449795 32.162552
21.039157 41.058139 25.355697
31.120997 42.292887 30.180467
45.205655 39.467982 21.868958
22.431248 40.341552 15.642553
21.752937 36.968302 11.740523
25.725715 54.379829 24.200631
38.659537 64.141540 23.965897
30.588337 42.980630 12.535150
48.459798 64.268181 37.606702
20.242243 47.646785 19.660783
28.220890 42.515705 33.210362
33.483902 49.323121 18.332749
30.350242 65.545560 10.945813
44.540259 59.462732 17.832134
42.926170 42.332344 12.091827
45.856475 32.783843 31.884590
40.323180 46.327763 16.736689
