20.538223 11.392157 83.477937
51.619601 89.930151 85.090518
71.611820 59.635308 97.281934
88.138229 56.798391 95.379000
56.142849 33.631318 97.867853
46.529696 20.135035 98.624294
69.379243 26.371219 96.226762
53.790675 78.103005 94.701415
16.560332 28.339679 96.629598
12.696961 54.243562 83.519891
37.285168 14.374029 80.009970
39.284448 9.251667 91.269716
56.457307 40.200136 85.102859
49.992274 93.961163 86.990960
92.025215 57.144262 86.815654
46.991905 5.203714 95.825412
14.031399 21.739752 89.436942
38.264770 49.270217 99.793148
51.190288 13.537682 92.024230
99.223384 73.263652 84.683952
76.155901 9.983996 88.827970
9.434096 15.019304 98.375102
88.990250 84.372028 93.606203
80.021102 27.931286 97.198523
4.881414 79.842640 96.505951
8.787648 83.012077 97.440269
33.186806 66.709804 93.330762
93.179542 67.121598 89.592281
80.657700 11.491881 85.754483
25.526745 27.346090 93.932338
92.431046 90.648387 93.796332
51.187519 23.299311 83.273189
58.232756 26.657250 98.229168
22.751497 5.118573 91.200831
79.869509 13.252680 91.780805
54.231910 19.563683 92.053536
98.863840 7.517851 91.996359
58.870766 13.411304 83.701848
78.279609 42.969653 97.002207
25.525550 79.574629 83.712438
35.743205 3.575164 96.350524
89.207092 98.720437 86.216878
9.842832 14.747959 81.606370
8.931793 90.484791 84.652266
12.197216 44.238060 88.335186
11.478685 35.670281 83.597328
49.505455 85.401420 85.907773
11.930047 29.610683 84.909686
18.611666 74.436394 89.106682
4.806130 22.288622 83.684741
50.554777 14.903800 96.247821
90.483615 45.421567 82.502244
96.248604 70.610402 90.661029
81.272844 2.147869 95.392052
64.979878 43.353311 89.588290
13.002887 69.194642 86.860294
11.402223 3.148058 86.500817
53.010754 40.496757 96.609825
38.419234 96.803230 88.535229
44.304254 25.412188 88.460522
40.614431 62.926879 99.860030
10.564563 52.516796 88.465350
27.801553 9.370783 95.115832
5.071042 56.639609 88.280121
59.024796 7.459572 82.960964
42.947197 76.524682 91.762791
21.463828 92.430444 95.930774
8.920418 8.249590 83.822571
16.443501 34.095331 91.799193
85.686985 45.087882 84.686608
88.611743 39.122463 85.324188
19.674785 20.133757 84.395649
7.260492 33.822541 88.486653
26.627759 2.012297 97.254274
47.398730 98.075399 83.867780
36.113276 5.217067 97.792802
68.576131 50.440451 93.776761
32.926958 88.089535 98.423019
75.228775 30.961516 86.126648
26.745865 56.330456 91.881321
95.238166 26.005398 81.844675
29.762933 3.002380 94.638756
66.116164 96.820414 85.224554
8.334361 97.979311 80.240423
14.296388 30.743860 84.849716
31.727170 29.085246 98.427977
40.054165 26.783364 87.397888
57.470213 61.856128 80.217277
67.783069 63.625306 82.821037
23.716967 10.437928 82.406095
30.410438 2.851781 92.737423
42.468280 65.528076 85.205566
33.700585 54.597004 98.557096
5.686077 40.703825 82.983322
8.632678 77.123218 86.484785
8.372013 76.767239 81.009146
96.093318 36.610499 81.102734
38.667647 40.513133 85.720171
68.211067 5.201097 83.821930
97.401452 43.723209 95.433858
64.959453 83.602232 99.672659
44.983627 33.209825 82.087284
13.002097 59.104617 96.829521
15.448620 8.115422 85.293534
52.108714 31.419394 94.390482
88.060923 30.777330 99.182187
56.511919 43.291741 91.216586
92.031288 9.461982 81.145370
11.992186 21.949455 91.764291
47.956816 0.121818 88.418321
45.460757 43.252577 83.299328
64.587753 24.605763 81.228936
61.272923 53.796343 95.833147
64.413818 38.101465 89.899863
94.272714 32.709327 92.708804
42.162664 4.165666 95.041254
73.635223 63.697980 92.387103
78.937605 24.976218 88.525685
91.633921 41.483862 91.964468
94.170478 91.902079 81.195757
58.030137 81.908184 81.934292
95.564578 85.656349 91.296819
90.482271 91.135665 81.476123
8.248169 18.866817 90.902309
72.035136 98.613692 94.834344
59.941884 53.584564 90.970212
7.938819 14.429641 93.423772
17.225149 50.434787 83.738755
88.877838 44.145002 85.629589
60.031120 84.984612 84.833577
90.674270 26.009139 82.572033
95.683059 80.496703 89.432953
53.302065 25.108445 81.543592
26.031872 39.910139 83.951275
49.293388 19.910287 81.343330
4.520296 28.256026 80.714069
81.311002 69.767228 99.698159
9.578346 91.332796 89.690112
49.843426 22.435230 98.970405
68.526669 91.895425 95.581665
49.829481 98.804195 96.991406
5.473917 37.168821 88.538674
65.442911 53.309113 86.008084
68.877637 94.754247 84.174729
32.277324 45.339338 83.750012
43.908253 56.266931 82.493741
37.907407 25.737013 83.428919
23.428329 20.594953 82.005061
75.522732 55.581758 91.120504
97.595086 33.525450 85.405095
90.769894 26.896017 85.131554
98.044587 76.288066 99.729302
90.606827 77.714543 84.662845
21.186508 91.469684 95.399200
18.260880 40.684365 92.236150
11.767481 9.506752 86.241584
49.224733 94.965611 87.749851
93.195209 35.472676 88.879912
98.031133 61.045447 89.205446
73.629724 24.672008 98.276544
9.141800 22.682339 84.634230
82.401365 48.271585 85.319797
71.217378 49.938961 92.516733
73.752577 98.548956 94.911721
82.732729 2.764716 81.944401
87.108229 55.003975 96.082271
6.790624 71.183168 83.482634
65.614344 93.943447 80.826773
74.335634 21.670171 94.979191
20.090681 79.951192 98.854969
32.315506 44.690046 90.705353
40.127616 47.236634 91.932850
88.335672 87.536606 87.575267
39.674475 7.660858 86.353311
43.615418 54.237174 93.291608
89.795599 41.997053 81.962389
69.562577 6.399933 86.528092
39.506008 79.588328 84.891700
22.192204 76.773752 86.734484
80.579622 55.688515 87.090436
52.075091 15.443850 91.969667
90.339118 24.972742 85.508227
8.835000 81.617113 84.270165
86.670438 9.485495 90.618961
61.469023 42.066647 99.626667
87.055323 0.617625 81.831974
94.461322 35.170091 84.604559
58.435635 59.595590 96.621912
8.812011 25.388043 83.775902
5.650219 30.482903 98.820378
38.298662 32.483297 88.190385
47.478494 44.560278 92.673248
31.257523 98.172820 95.342559
93.798450 57.463740 80.323837
17.063622 66.198951 86.301435
4.341975 23.285756 90.023337
68.787376 61.612270 94.201389
90.378039 50.822247 97.745023
47.237194 48.278723 98.220020
52.409595 4.500026 86.226439
88.907469 44.382088 89.730863
93.349338 38.413825 89.297760
92.549308 31.188775 96.285930
37.361138 26.991672 92.426213
48.313692 84.034103 99.239036
64.979283 7.036696 89.887859
53.371470 31.836359 86.166751
73.811460 71.890033 87.722086
35.132293 23.354871 83.115280
74.597906 31.812941 85.750185
57.886877 40.953889 96.565845
4.281089 53.718919 95.597767
88.134114 62.244781 94.601838
21.735457 98.187699 87.678517
24.534713 66.863968 87.282333
44.206279 40.465396 94.768028
73.853473 60.597851 92.995615
34.260794 86.146006 96.305877
8.036936 36.680862 85.004466
68.440224 82.838343 89.492678
10.862671 83.635620 93.691057
92.036057 20.455357 88.882394
25.026177 16.581692 90.707082
61.336015 62.126702 87.279655
13.701644 49.804057 89.205372
18.745801 62.638358 99.774355
3.734494 85.866973 97.889587
5.074501 19.441557 93.065742
0.578240 8.779244 84.675218
56.231522 80.278242 81.826322
88.361280 47.781778 85.060472
5.009709 88.145991 94.413270
27.354592 2.600683 85.210274
46.418349 44.797981 91.810037
66.567094 30.418782 82.305770
32.636024 46.870631 80.695489
11.237114 17.276946 86.260182
18.611938 54.133530 98.610454
55.002389 22.760351 87.287875
28.159614 41.260203 97.013848
31.904528 5.682027 98.571272
80.676793 36.236999 83.776411
56.562574 54.259293 91.357438
17.281394 98.054780 88.747848
56.983523 14.734320 89.955195
11.353513 1.226134 83.011433
7.305752 19.373274 80.835184
6.086247 82.791696 84.824117
49.188039 10.374369 85.896784
82.589059 48.266620 80.080463
2.248790 29.686246 87.998381
31.787539 57.624133 93.787468
48.554660 66.097983 89.965525
55.795581 55.323451 81.920302
77.149308 81.982280 93.786193
25.945457 61.351962 94.418078
50.888235 44.902750 98.966769
14.526970 67.564699 87.699726
72.254038 89.231125 85.348143
4.373630 78.188159 91.957869
85.485632 88.846017 97.008411
66.993500 97.936887 90.525925
86.979300 51.942743 97.742490
62.872729 6.052179 92.311919
23.860893 15.051502 98.544427
43.723602 8.031927 95.324687
60.046666 21.220885 87.838421
43.473348 88.167780 97.807723
75.704212 3.067446 80.196087
11.051597 54.938495 80.663888
5.001263 38.854383 81.065107
41.926025 96.963414 92.299085
97.824515 0.970941 95.609253
79.946249 90.468905 84.933767
89.393890 47.685198 99.516655
52.644983 72.158429 90.440688
95.016072 95.603641 94.021644
17.951857 93.493488 96.628216
66.758551 14.987663 98.934461
86.982238 97.745543 83.606822
90.917273 89.281262 90.248826
69.189745 68.886605 91.380471
26.037273 59.868053 96.028414
57.513666 79.087884 80.201710
35.878083 65.925829 96.076387
88.794558 58.034044 82.666050
58.232015 30.537021 97.745982
55.158993 61.824367 97.920868
89.072063 36.154686 98.320138
9.600538 23.352247 84.658363
26.506268 3.790709 94.779388
10.426711 16.661546 85.756661
69.449870 24.509219 83.177115
97.407685 76.292590 87.357078
93.949516 41.310400 85.939556
49.854251 82.718470 86.251902
71.691219 65.462215 86.565477
2.915912 61.416719 89.783533
42.127422 63.763750 90.089727
10.398162 81.099435 90.369510
87.695133 57.457182 85.840364
65.999604 75.830252 98.892812
97.841616 63.952731 84.417598
5.256362 80.138338 83.484179
81.761152 56.418218 85.589008
62.456430 36.692587 91.808554
30.677643 45.429761 87.120290
22.683153 40.368670 94.942509
26.181574 68.814302 89.117197
39.870324 92.166991 95.243731
97.045690 77.161541 96.802863
76.269346 7.986763 94.197803
23.767333 74.477498 93.306897
40.523333 27.786766 81.618861
38.469697 41.800198 93.750132
96.715438 59.480854 96.154386
69.478607 59.357087 94.875177
74.747437 60.506492 82.547990
36.923507 89.693196 82.654638
7.475527 6.099876 98.365944
51.461682 1.779913 90.959673
75.022985 47.023801 99.748917
81.258075 70.970560 95.951386
88.651205 72.409304 80.151461
62.013843 43.493178 91.351898
70.405962 42.621695 86.743832
15.390029 9.201926 81.983821
92.506294 18.230368 91.986289
64.360345 62.021204 83.193690
77.388063 82.164671 86.528099
92.825225 17.271669 96.534619
52.718728 9.836538 89.518138
77.903245 37.335231 94.784373
18.758440 4.020007 84.244752
5.668010 60.961366 92.119977
42.531664 9.666592 82.343815
4.605875 74.727144 85.368291
38.729941 76.711848 90.197515
92.281316 60.850160 86.045784
45.406054 45.612766 99.874579
53.229131 72.954483 87.937125
25.421966 79.008105 89.384292
32.319578 61.559405 86.322694
21.010860 30.106400 84.691526
32.328934 84.965262 96.096320
18.088368 32.540115 84.529700
16.216991 35.106274 95.621498
30.891271 96.103840 98.964971
54.775047 59.548459 87.542891
55.906060 59.125842 80.470282
94.242884 97.976080 92.621690
80.378781 25.533618 92.113753
17.122776 18.346964 85.916225
82.702559 8.742663 98.900685
85.161808 78.669566 86.185791
59.841584 90.286593 93.796225
80.792318 10.148487 86.856374
92.128787 87.041844 81.470727
54.648104 84.697686 88.682187
99.825212 80.194726 91.257278
68.513776 78.890891 95.248755
25.811588 37.255390 84.188820
92.080867 24.074555 86.702091
79.262656 20.717925 93.115150
52.161607 36.928489 85.842355
83.328898 78.015036 85.621251
60.721801 51.186696 94.879383
87.189384 17.564302 84.125726
92.359826 33.637506 87.504240
44.493639 34.986384 98.120209
78.314439 31.029455 84.901146
62.488434 18.942613 82.033091
96.965556 46.419946 89.142939
1.739433 48.433337 86.638587
63.133785 73.798315 95.801903
60.965351 69.046069 84.954036
74.727915 96.253418 88.539295
64.256831 74.549060 87.751199
48.333098 88.276178 88.358713
76.030665 26.108190 81.651200
96.216090 14.116573 82.220526
44.108771 68.553591 99.631956
93.970057 52.232988 96.210476
26.669548 68.481983 86.046351
19.610461 13.778737 82.585919
97.861250 98.205672 98.122532
26.388039 32.296517 98.873686
77.214356 16.130309 85.033120
58.634205 40.321031 91.247323
29.021226 6.784925 90.383560
21.065743 43.128520 92.861933
27.752646 59.316291 96.666538
56.460406 9.187568 80.555138
43.181450 71.852693 87.991917
23.074923 75.014455 82.150751
3.461725 62.085327 82.021333
31.197995 50.595608 82.059987
78.481804 94.351152 85.736278
91.403549 4.426517 88.487645
38.311478 31.895229 81.747528
67.875450 22.216396 96.664559
96.405552 66.433202 91.759203
62.860364 31.469572 93.246313
69.742356 99.456571 87.530864
75.293165 22.706196 85.609234
4.167248 76.438953 82.579010
52.409252 92.619575 88.961930
16.434401 83.381322 84.461391
85.615245 45.599840 93.547339
39.182946 32.786072 89.650211
11.554416 36.233077 83.999584
25.787574 92.517059 93.875326
39.504899 61.492534 86.058243
33.291338 3.825049 93.174111
28.576877 95.573782 97.328381
91.337173 57.301537 99.150045
53.430845 31.959828 98.524382
28.824107 76.688756 88.896130
32.197527 55.960869 85.092093
25.365931 34.843669 95.033330
83.783120 46.033020 93.591986
22.307001 7.430409 98.170293
60.050129 69.328939 89.557398
16.070966 2.403832 84.719695
31.813301 9.125114 93.778899
84.038496 66.092214 95.042765
89.792738 40.534467 82.718457
81.019998 29.077158 94.366197
98.159209 81.432225 98.682923
78.679621 69.841186 80.631524
29.270641 4.957060 88.782122
55.124295 53.683139 97.991856
66.353944 38.592567 95.994254
79.248263 80.409698 92.744625
33.652443 74.559238 96.479850
15.933445 33.636102 89.055311
86.814733 94.903771 85.206229
44.830654 46.213664 83.819243
50.395998 32.058902 95.667061
56.129596 63.300804 90.678374
11.147439 81.281210 96.131542
10.726924 89.715155 88.435473
14.929530 81.983251 97.893698
6.743420 87.956608 80.312395
98.707847 24.010289 95.602318
45.231970 50.188170 92.474999
84.500791 57.188940 81.546012
4.990236 66.510074 96.252508
68.809820 18.727231 95.514961
57.056767 64.549129 84.198679
91.893739 52.519579 93.535988
71.626516 32.390231 86.749750
76.072975 44.877790 95.212862
9.852694 62.117294 90.267796
51.687687 97.083421 89.937397
55.874385 80.455566 86.694664
47.429271 33.213403 99.182146
79.100918 30.403141 89.766830
36.001733 58.077571 84.340188
17.455054 70.581549 95.752355
57.199022 91.986417 97.068623
75.821690 61.926539 93.039642
2.785214 83.256596 82.079950
76.593846 58.919288 80.953768
41.609038 98.732328 96.770967
97.286988 89.371338 88.021138
61.920296 18.139877 97.230213
86.601714 59.736081 92.521923
83.454483 47.662192 94.662543
95.459737 62.443695 95.452901
83.813436 1.873146 87.790615
30.155961 91.449877 91.672047
93.829735 51.158916 94.760356
64.970791 13.477896 83.447317
12.922465 90.520497 98.194223
54.568467 67.196337 82.730018
45.149196 9.355955 91.959989
73.929319 90.946021 85.631617
26.613410 21.399041 87.323299
99.098248 50.974431 84.779492
30.002897 76.318558 94.721497
71.618821 22.911625 85.847682
67.540176 69.525949 97.877323
76.833691 95.614045 85.746058
19.743001 39.097760 84.116999
86.772087 91.118015 88.324295
36.400744 71.639959 95.504699
1.368494 80.655678 88.909190
56.270410 94.590696 87.349084
80.876250 34.165527 91.817509
97.029320 25.093441 98.328053
38.174763 54.842098 80.249080
18.646386 27.000898 91.711150
81.129672 50.976232 92.813279
23.291916 33.010447 86.104308
3.906295 34.144579 92.967790
96.404430 62.401564 95.426400
30.578119 99.564832 88.163995
7.613974 95.341584 98.636908
67.383145 28.236109 84.531569
12.869271 22.580427 81.964344
75.499353 57.928846 97.209319
35.306663 51.370303 94.800540
5.845718 68.248174 89.181941
97.515508 49.472909 97.319757
88.296923 30.936736 82.131950
14.909474 24.774173 96.044566
74.234047 71.285284 95.998605
93.828495 37.693581 84.259365
6.101657 21.905551 98.473895
10.905514 38.191286 98.801439
91.432695 7.402572 92.618379
64.684313 96.548579 90.617932
94.993433 29.282935 99.704461
37.257384 88.629564 86.126815
40.392239 63.996515 81.695811
59.685064 6.707789 86.275468
84.391216 69.891524 93.107096
6.854839 86.791795 95.206135
50.648934 82.330870 99.403012
22.049046 8.681311 91.405304
26.693553 50.174136 86.888780
33.375826 96.388796 87.983150
20.998931 39.924417 81.290960
36.228657 85.084548 92.355263
15.995145 45.446571 92.977989
75.540488 51.884781 94.663074
66.905047 44.258967 84.530946
22.020560 41.625286 87.133406
19.931741 60.014033 99.522593
63.679134 27.540209 80.518155
73.836293 79.660827 93.939500
2.780127 72.610942 99.304554
57.545304 23.364491 90.969932
42.747853 62.298568 96.390691
31.402949 92.508828 97.197665
94.692900 98.323855 87.793225
63.154024 65.683160 92.291475
90.143198 51.031852 97.348449
96.178566 2.815656 84.478843
9.720673 20.155697 86.189215
52.596107 74.703041 97.143333
66.226669 4.997244 89.729645
34.859073 93.990819 90.930015
32.924187 4.644248 99.842722
18.036168 78.424368 89.317335
37.557402 49.877625 90.614721
47.788538 33.205750 85.899149
87.001666 66.266227 93.656819
46.365965 22.927691 90.428484
57.616957 32.742761 93.320704
39.765546 56.619379 99.955493
54.865608 84.197012 91.598454
49.926763 58.678881 87.978553
63.319165 49.896147 82.559880
60.105656 35.558012 99.433471
64.914183 62.656945 98.090453
89.534276 48.071196 96.878826
95.292287 16.235553 81.569659
85.453325 30.322143 94.905902
80.732440 54.031112 91.206762
13.080160 44.387756 96.061913
20.322966 7.775856 85.869871
85.601287 40.310436 94.093747
68.942590 3.196144 85.993442
69.497186 41.656299 98.296036
49.289374 91.568871 94.961400
69.005308 1.907981 92.433299
7.913339 15.232102 91.999226
71.636506 83.617774 83.963073
35.176631 85.332838 89.876767
10.351700 57.895464 85.611067
14.282655 4.035645 93.469102
43.898191 96.623707 89.375497
74.602589 45.480165 93.534673
10.989778 24.915725 93.055508
91.496683 96.875091 85.423632
36.393528 99.400563 82.183117
21.772037 80.017241 86.067272
55.985312 34.576715 85.484330
18.584907 84.629436 98.090965
67.784406 45.455263 81.003644
89.015238 25.574712 86.163678
14.878156 1.717859 84.654064
73.472649 55.386814 93.176370
55.135849 75.665187 86.437396
78.662650 60.684452 99.194819
78.122634 25.231546 82.167393
85.393705 94.652740 97.796433
60.159866 95.823773 83.349349
96.274893 91.182351 87.634464
17.773135 11.084907 94.136981
51.647347 24.753702 80.635322
55.926535 45.536603 80.566615
15.012267 35.466266 96.096456
71.987315 57.252084 87.164865
81.490351 71.877419 91.102645
38.431459 63.187897 99.344709
47.205691 78.411979 88.848924
21.672672 42.757496 80.163665
98.512674 33.850807 98.901574
5.163629 30.931106 95.283979
40.865378 32.905881 88.782531
41.302839 1.049547 94.016921
81.530923 50.083647 90.481278
71.509773 8.988515 92.091042
65.831583 27.386462 83.217494
7.628702 77.743020 92.051463
74.079968 62.245019 80.663503
87.980970 58.500105 83.195396
48.136339 83.848065 80.436895
33.650137 31.930401 90.235885
30.837579 45.635517 84.221308
34.900206 72.445798 87.695083
88.078073 66.045817 97.866922
13.552687 92.051684 94.750995
29.126915 82.935990 86.077057
65.207357 26.709667 97.719761
18.750989 85.829684 80.492237
56.337027 21.081637 83.060713
2.482167 27.669941 90.294470
5.406198 3.925959 89.167970
97.699873 67.805791 84.301071
20.444906 3.020728 92.887584
13.543989 17.623287 88.303249
27.119902 94.890629 93.074512
53.587141 89.210850 87.028456
45.903216 68.326429 80.391512
59.409784 49.253981 84.384304
49.331733 25.443450 86.667842
7.411949 87.998922 94.869375
30.079063 74.127259 99.883485
35.223659 59.144109 89.602113
44.859160 43.551745 95.126777
74.054575 83.205864 85.782649
0.883302 13.743985 82.877714
88.130711 2.160771 88.078935
6.409624 50.925668 87.312872
41.396322 96.811170 98.137029
29.877543 64.624900 91.009850
11.065242 21.004673 83.849630
37.258484 5.955714 83.977422
8.030892 10.342021 80.232414
78.080896 50.907394 95.228023
39.414259 91.709996 80.322231
75.357873 62.584695 82.327583
47.993252 12.278872 95.274456
92.454399 3.847314 99.066133
1.785791 67.048658 91.271140
77.829868 57.495005 95.004120
12.763961 10.227112 92.254994
27.070661 69.684968 94.630204
64.368196 81.935282 94.449456
18.543795 18.818139 93.171835
8.373556 4.006448 80.534119
58.433448 20.648556 86.110262
95.644088 12.611492 88.337253
81.093017 10.636033 94.811243
88.357493 88.647061 86.321963
95.849669 59.696698 80.757541
29.956780 36.692594 93.356953
14.121177 22.940788 99.000124
68.687655 33.711492 94.189975
41.078967 77.040324 92.048406
91.700309 5.050165 88.058938
15.047735 48.689656 98.049048
48.241938 97.172532 89.120535
43.921889 26.269298 99.247380
39.507036 98.657686 98.620666
30.656698 31.514402 89.094886
7.560225 96.793545 85.798003
32.139881 55.229469 87.712801
75.496994 48.002687 87.168832
33.350910 0.426147 89.658841
26.405229 18.840145 98.514472
43.510153 99.156377 91.601127
56.341715 99.556705 96.016869
45.265385 31.052685 90.567101
92.172815 46.095284 93.698290
11.579339 54.329640 95.032364
93.811873 55.478181 82.317478
39.073909 27.952380 92.243988
68.746408 45.712085 93.443282
87.954373 91.167842 81.751219
65.410995 34.479654 83.068612
84.363548 29.662485 99.582413
21.736468 98.270100 84.168482
43.508897 16.322263 80.587338
80.538357 40.774058 92.503810
63.070059 80.941512 98.426717
34.486000 99.799722 85.153685
16.433437 57.904852 87.323396
64.125063 0.409527 81.840753
16.323720 66.560880 88.535626
63.540145 41.743042 91.031864
37.993997 25.621905 82.562030
44.985904 81.606694 90.137528
24.625132 17.047971 87.533622
9.587200 67.634837 81.610491
20.252275 55.550365 89.953112
93.260914 47.143599 95.824784
6.227002 31.274841 98.079508
14.461304 3.731537 93.595979
89.875399 8.982340 92.969800
91.118326 11.418262 91.956057
17.514062 5.637598 99.908499
72.083706 42.993147 94.505096
98.573474 86.001443 98.544154
80.644015 95.603152 93.829641
85.545592 28.431030 95.828427
26.038426 80.005941 89.842856
3.563897 7.067444 87.990985
26.673439 9.925109 80.819158
33.728949 27.522436 95.889779
53.498949 9.601874 87.119027
64.259349 81.371785 84.296359
44.202701 80.669696 81.482025
54.646456 71.691086 80.517433
15.565747 58.118266 92.092870
92.780792 45.991625 88.950995
83.544720 65.272363 93.847712
29.711693 69.405101 88.151439
61.702448 48.392466 86.800927
23.562109 80.715339 88.074831
5.693502 70.094028 87.618787
14.644164 74.483597 83.802182
4.899381 10.170282 87.410766
52.322755 95.206417 94.315255
55.083125 52.477035 85.028607
41.677006 2.947492 92.671126
1.500362 2.571582 88.411968
64.696785 41.008583 98.369943
52.554944 88.887864 92.195813
32.555856 5.393272 82.186038
77.280770 49.369660 93.774531
31.082360 66.959831 89.354749
64.021755 51.251866 99.279833
43.978214 83.476423 89.930619
74.756632 13.707333 99.986065
58.274758 43.569246 96.880213
23.927416 86.614044 90.571551
76.841036 56.856980 81.899382
11.077045 11.772105 82.294274
6.171740 16.306383 80.795180
84.848758 63.687387 82.314036
9.445291 10.939305 92.881865
89.577610 20.140064 83.007359
30.235493 82.052458 85.766189
48.596598 33.453194 86.194779
6.095699 61.094221 82.957710
43.982509 29.075422 97.281117
92.809709 97.832124 93.154853
91.840361 50.714399 96.532528
63.706264 45.395852 96.687729
49.909893 90.049106 97.682809
59.262245 10.190945 96.561547
78.194563 49.278909 96.486110
69.824932 74.728035 83.820205
77.458263 35.052729 86.324279
23.622688 56.123916 92.799883
98.965819 18.850342 91.211764
95.933304 63.779689 83.788593
19.353626 95.907301 84.088392
87.512234 85.379182 91.812332
58.848282 91.977200 82.433604
5.362683 87.024162 90.371083
85.449387 23.651311 92.407869
49.950546 80.452456 99.136463
96.751531 72.806787 89.636459
93.241163 58.633926 93.358336
90.303424 42.917882 97.158443
26.900029 17.691216 92.337822
32.075376 93.026797 97.570859
16.583968 66.348456 81.776326
90.505595 35.786409 82.519437
67.047167 49.268701 80.650769
69.744858 36.535413 80.544024
21.183564 53.892297 98.660572
19.401712 78.685069 92.374061
93.939730 71.971888 95.971780
78.987289 36.065257 87.317343
27.472270 68.763201 89.323532
82.700860 34.014956 84.374608
12.947280 55.857612 95.487744
41.139457 5.208188 87.392637
65.468356 14.811242 88.579902
6.939566 75.818726 91.784207
73.783317 0.464615 87.633404
64.831645 15.002793 87.718086
60.742760 22.066885 91.832461
42.670974 81.486778 89.185517
11.984998 45.901861 90.435537
47.438094 1.073267 93.009669
12.549506 8.636585 80.033490
85.167501 68.188362 96.552119
11.922090 55.205086 89.999272
60.806194 90.152262 87.881116
53.364650 86.261696 93.153747
89.734186 44.359870 83.456651
74.285594 11.540899 81.231531
14.034661 90.419462 89.295721
33.343350 23.734862 83.634830
40.627440 42.220105 93.900748
95.192380 31.292343 91.737389
49.389304 5.665802 95.495234
8.617665 16.670079 82.311202
56.678563 43.328199 80.812709
55.281401 72.412460 80.738259
85.165502 95.655222 95.355350
66.025724 52.196548 84.070483
51.901562 31.680783 99.761844
38.591072 39.719996 85.935803
32.820286 32.312790 99.102044
98.325987 92.154128 94.893997
45.907728 87.092647 88.067368
79.169235 87.589926 91.199362
52.837961 59.343827 91.480945
29.741254 90.154109 80.825790
24.768771 68.097990 97.467111
47.674059 3.931335 84.047549
69.423920 19.287193 83.219948
54.890894 35.613271 87.034293
77.951755 43.432707 95.037253
50.758651 60.949882 92.370262
99.123095 14.734468 86.503125
79.540552 74.437761 88.666806
79.901434 18.699114 89.192767
55.730355 93.359372 90.763298
19.988680 57.528409 84.026712
34.308541 58.688315 89.416463
54.235310 56.592051 96.531797
28.459131 18.925779 96.384274
62.998096 99.687829 99.362220
74.600365 44.696295 83.999303
58.525881 38.163148 85.068829
89.895250 83.351875 92.200489
35.339265 13.749194 91.604381
23.629866 65.914439 95.460867
81.103640 67.828164 88.381179
8.307375 42.516105 90.396937
34.756835 7.023367 91.838021
32.449565 52.435208 91.408212
90.457183 3.248695 81.779402
7.014039 18.452736 80.205459
74.485209 34.842485 96.456643
22.345360 76.945861 87.285319
44.032855 13.496499 82.826518
73.741801 20.203201 97.737966
5.018785 31.249361 99.486603
54.464350 79.944415 90.567022
63.869650 47.463122 97.975144
54.720221 4.357879 80.260404
98.295301 92.835692 94.174125
84.696605 86.370169 85.625070
42.094416 46.566913 80.427239
96.349100 48.150278 99.024618
81.759623 41.017990 83.240669
84.220701 39.863572 97.347227
15.003940 70.146875 91.424432
50.162116 0.784882 82.191019
3.010193 73.457502 83.595626
38.819968 6.830351 97.908654
40.028433 21.746001 99.132397
66.056915 94.422489 81.019551
69.759958 68.667162 84.560821
62.531597 76.115787 85.952951
84.476012 62.595497 87.763816
21.355743 55.260273 93.114403
2.076921 56.200717 92.204179
78.513668 68.714332 82.125418
31.278111 49.501275 99.206206
25.285923 7.894697 86.433213
90.687060 44.678711 90.727419
41.045934 1.480034 82.697753
34.706506 66.042531 85.159355
83.170010 50.827166 89.959600
22.948258 63.024193 81.995004
96.276389 24.953020 82.892488
84.031830 85.135827 80.113250
81.381847 79.889116 95.728912
13.463935 17.648372 84.584884
97.157900 75.581738 87.777332
62.699608 54.446847 94.724925
72.580739 53.402051 83.888401
25.754357 8.786813 88.170330
52.236535 99.642079 95.330185
14.473393 5.615774 87.042513
20.717902 14.075271 88.637792
85.292519 68.805963 86.891000
82.822908 91.449891 98.513659
85.704307 32.243818 86.292431
65.811462 94.109736 97.980261
33.402970 80.373908 83.640072
83.532344 28.226358 99.148484
47.222837 32.438845 99.184289
57.299561 31.529620 92.542121
24.621959 48.008834 99.650917
47.640817 13.831692 91.851669
21.299943 70.697437 87.255752
74.803160 99.275332 92.312713
72.929228 34.535432 97.165509
0.431990 86.600689 84.812701
13.562745 33.615330 92.932874
88.820317 75.348434 94.722156
48.197804 77.609943 94.504700
29.791543 80.774139 80.555672
84.295606 26.931841 87.871272
74.348230 81.133537 80.818870
49.652093 30.276161 98.799967
74.296930 86.694858 97.419337
95.378878 67.148323 83.912998
47.601991 43.958587 91.848779
15.643895 48.040716 89.668887
39.780550 7.224174 85.669079
46.145638 95.807390 85.154001
63.086222 8.786882 94.412828
57.455078 50.573866 86.345933
83.930537 91.150705 98.818409
76.095994 4.851217 94.418268
7.338739 42.608657 89.768375
53.427965 62.972411 81.997867
30.368491 96.261771 86.148232
45.197143 23.614045 89.707262
84.248114 49.312667 96.569607
96.807128 70.316139 84.254863
16.500334 2.112747 86.498107
71.390317 6.772892 86.733815
56.617058 78.561832 82.905082
31.551581 12.031445 95.253954
79.766648 18.521570 82.036233
35.400110 26.274138 99.983979
65.269453 43.945919 86.237594
97.346497 6.144029 97.132911
5.557699 75.330466 93.940726
67.456731 61.420236 87.199470
35.730707 57.536547 89.276132
89.626288 70.276019 82.059814
58.912956 78.356276 91.330684
1.273714 87.516353 96.152931
8.510237 11.819737 97.121316
4.538225 49.915081 94.905705
35.083140 95.672249 98.241373
25.408307 54.682384 99.131204
33.932304 92.574082 93.459509
21.356838 4.493963 89.035704
38.584637 1.422779 93.897090
52.992283 50.403115 91.492197
93.639204 74.790671 96.724387
38.844231 54.060751 81.032003
14.615681 79.503513 80.993903
70.701719 80.197095 84.415881
16.179129 97.489186 85.036341
89.620943 7.485005 81.524576
14.203210 24.929910 80.881194
52.266969 59.532984 94.018458
59.154533 98.649848 86.402118
34.446040 12.282505 89.350493
28.475634 15.130520 97.469685
43.283099 65.170742 93.271049
19.704877 16.386729 88.214486
38.740634 72.194383 98.180037
67.520852 17.215231 85.922995
73.703979 70.841680 94.313412
22.925187 21.304644 96.942959
23.928758 67.560596 92.286586
30.559212 96.521994 90.698001
61.046482 16.429163 81.777408
17.805678 98.929026 91.400086
71.016139 12.246229 95.669358
65.567469 28.729588 80.450813
71.564261 85.598635 99.907755
16.718478 4.557038 87.557384
79.236602 55.365587 80.926009
88.993300 67.765449 90.379596
96.374901 4.841647 95.531547
9.689783 89.509070 97.323819
29.105580 56.693850 83.893582
14.566801 24.251674 87.901442
65.901394 45.782348 91.857045
65.628803 28.996639 99.580854
92.659944 74.550646 90.177116
24.072726 43.885002 88.596500
22.176587 56.392631 86.041869
82.267810 67.678088 94.809320
12.193104 70.959100 85.287060
42.995879 30.780684 84.926662
44.741090 15.993653 87.670119
71.218268 26.012317 98.751590
65.953765 87.518327 92.947478
16.151682 95.252222 97.081147
85.063359 55.209026 96.689505
80.302094 13.113854 89.269559
30.234026 45.077473 97.852243
18.290380 42.476807 80.015512
48.651053 78.849227 83.336464
73.919095 90.600074 96.497180
66.145398 31.703353 84.501015
27.658739 14.177232 88.694917
44.610656 37.293385 80.542722
79.893452 65.692280 87.195822
32.013388 2.529870 96.992581
1.824799 8.854527 92.766341
1.693612 8.300378 87.030183
89.783954 61.042671 89.753541
86.261272 94.047869 96.750981
89.532590 54.767176 81.556411
30.681839 37.277555 81.822164
9.539724 20.422503 97.360262
19.540607 72.811252 83.774454
96.580258 95.641085 96.060829
17.978834 17.854944 95.646799
46.077752 25.396116 94.830778
79.056598 17.651769 96.415564
48.717117 39.963003 80.697010
0.134855 44.116155 83.384206
92.266731 33.533661 93.876995
58.517026 90.366120 83.524077
62.071187 56.040765 84.172197
82.673483 7.492795 82.786030
59.559351 89.050244 97.169085
7.958030 68.127293 87.872710
36.891874 58.267888 95.069508
26.912491 53.157034 80.651706
20.799096 55.300305 84.590102
32.453538 21.159535 96.767112
98.914143 66.082801 90.330230
7.345799 78.402384 84.096008
39.314194 69.389275 99.603837
43.264576 74.031062 85.072051
90.426985 66.908061 96.578432
43.265021 85.074160 86.536259
85.055153 64.527994 82.480747
36.784475 27.340257 92.904824
7.158523 34.623259 95.870910
54.245707 25.565082 90.958858
28.152844 29.252225 92.118990
83.580724 10.987141 92.551834
7.622637 33.493736 81.171808
68.983946 85.265454 99.341715
82.134471 13.092419 95.140677
66.329699 32.806952 91.136267
2.118912 2.413281 89.476057
14.054674 73.145850 91.398329
97.689823 36.992046 99.425316
84.353973 29.811048 85.678311
5.753552 89.840375 90.889704
89.395861 33.963090 97.302016
87.277343 26.129258 80.429114
30.173624 47.441523 89.354186
35.335308 50.977100 83.195976
23.396276 7.730896 82.385035
58.200463 28.103456 97.775486
61.939835 85.593647 82.473668
55.718481 20.166099 90.114764
82.012349 74.853916 99.896151
48.449700 25.856370 86.154327
82.447850 7.118699 93.430892
65.838999 96.256820 89.974616
13.365781 91.328972 91.638792
96.498073 96.864272 83.748157
0.268661 90.838005 80.674694
13.644802 39.002925 95.227716
12.292483 92.651597 92.334751
91.296119 8.826451 93.349167
63.476769 65.329367 96.247710
67.811729 0.246067 99.721982
74.403740 34.609094 93.634965
97.404860 16.172080 97.607947
39.765739 27.877852 83.768957
42.216119 74.654354 88.579310
62.729223 99.999208 87.081783
47.922218 4.185943 89.225059
65.137632 83.266076 98.436881
37.055947 60.817989 83.787520
96.908383 98.848849 95.457047
79.243851 36.805192 97.610942
48.487371 53.755706 92.856739
66.655893 85.181968 80.428595
27.806636 59.926917 86.955388
40.551755 55.011705 85.459947
30.502069 55.380853 96.727707
86.028400 39.422241 85.092035
63.214171 53.626324 99.389400
19.469338 32.847886 91.397710
16.631932 69.741291 80.379405
63.811162 64.422817 86.521059
10.456655 63.041752 96.489192
9.047417 67.344891 83.319396
11.699049 8.295663 92.711694
29.605368 30.921912 94.763164
98.629288 16.069216 93.824902
38.529432 0.105493 99.778851
45.938038 60.315876 89.184514
89.181747 27.471994 88.355701
63.013517 1.164750 97.420023
61.652878 18.257161 88.731164
3.143324 31.478158 94.545802
15.283600 77.016444 98.688082
26.699165 86.182366 98.385178
88.923601 95.018652 80.899896
25.435724 74.355575 98.099208
51.486469 26.730349 81.040975
12.021040 54.931773 98.454527
45.140927 50.664897 83.518785
57.669821 64.576924 86.140758
81.361549 97.203561 81.613770
71.595506 17.549781 85.871314
31.468126 47.663675 92.955842
58.125741 68.059263 97.071283
24.223588 21.862940 93.556196
7.799142 93.787840 99.462692
73.825376 14.399733 90.245676
29.220455 17.064446 91.008699
43.615426 80.865195 90.070051
59.650194 21.873951 90.246112
13.255495 19.771200 87.584497
50.676666 92.830982 93.971817
64.529853 83.855114 99.256020
22.758385 14.601336 93.972233
68.912369 9.603480 88.953199
51.290603 59.331119 97.035168
69.697957 46.103947 93.513627
12.711383 55.453732 93.102325
23.848004 30.201929 99.486218
40.373007 58.746463 90.754627
53.119284 85.446195 90.049866
18.278566 75.527124 87.678875
71.149428 37.533405 92.289965
56.386214 90.944864 95.552269
60.068901 99.692020 92.444961
69.933763 32.851804 90.125867
47.447980 71.632043 80.124428
68.228652 3.984216 85.474828
81.381657 20.988518 99.085276
54.233105 6.093416 92.070415
97.809837 47.389398 94.151088
56.737082 32.883063 98.785291
34.679566 53.289070 97.532329
94.143519 16.000348 86.067624
67.723063 58.239574 94.259230
14.296806 36.866434 90.692824
10.831633 24.499768 93.177181
56.199006 56.534625 90.257730
40.480183 65.329583 92.526231
3.864454 84.245538 98.072076
21.794962 0.626196 92.677530
74.773256 51.085521 88.044961
13.188332 39.371675 83.537706
58.216378 22.211999 89.866538
38.179228 71.105921 85.547664
50.877907 24.642545 91.052732
54.913846 24.745739 97.852208
64.808650 58.893192 98.452077
61.042373 38.526753 82.841008
21.239645 18.452204 95.020728
94.805730 13.284276 97.836235
24.156697 22.858989 98.696493
70.502939 3.174180 90.507107
99.409036 24.723264 82.105067
63.245816 88.388914 94.407453
45.101544 80.287394 84.826856
60.373952 82.032297 92.174491
58.728011 95.813794 95.580112
3.538689 58.517307 90.367447
68.907185 44.870180 91.654611
15.339066 73.434858 88.841371
70.612438 69.722926 86.491148
77.009279 54.840269 96.481356
94.409316 61.589793 94.730461
68.291156 31.897856 92.450779
31.115573 2.071330 97.539477
90.676117 64.892581 92.782946
49.769162 21.995374 97.716074
85.685368 82.764080 93.320221
40.801976 24.039404 93.996727
41.265534 55.955771 90.507441
90.264076 52.847262 93.354373
84.438139 80.451816 91.169319
33.428276 68.546875 94.790349
51.445912 28.250653 98.437738
5.559169 38.260785 93.449584
94.678865 39.428109 90.434828
92.604240 99.841917 97.661801
13.466409 66.361943 98.882047
88.027398 15.065105 83.791113
19.849988 93.459421 86.264053
34.048946 5.123715 82.913530
29.839639 14.426526 94.722525
45.690502 22.650926 88.403556
81.520351 23.603453 84.962376
70.861691 88.083784 93.031535
15.015483 2.274959 85.424606
57.225006 6.218803 88.661155
51.711475 25.336210 96.231282
33.477296 43.722372 86.112283
45.943450 44.992643 92.264399
94.608995 3.161065 85.096540
43.685737 6.393797 91.998189
73.205417 45.001870 91.903012
24.061398 53.727733 87.684442
13.295555 9.301881 94.288829
14.905552 92.679028 83.083717
4.121618 26.361312 87.562392
95.225728 96.977044 90.311830
55.749066 85.522039 84.739514
5.069705 41.248995 96.660701
9.725024 69.152974 99.794640
26.915370 95.692796 95.876448
23.466009 35.311731 98.841238
73.348183 83.832741 96.204380
95.759164 64.453729 87.741625
72.434374 42.834432 81.009519
83.710300 98.834288 96.351002
79.394095 37.298952 91.592701
62.295542 94.634215 84.031133
38.895848 69.101681 96.174878
97.275090 68.243789 80.318107
75.632185 27.294965 96.049130
16.455579 42.462450 92.159784
68.625628 18.608287 92.726378
79.810294 65.495663 83.085694
44.217978 85.139664 82.745599
63.110556 21.937426 88.157330
89.981223 70.854860 87.517555
14.752717 81.428970 98.599232
98.863991 24.254323 93.059550
78.090126 8.004154 88.167575
30.975190 13.127041 94.853744
55.425903 33.457762 87.787897
3.718238 10.104113 94.854875
74.346413 27.146947 86.614686
18.583677 49.754997 88.658417
83.156502 64.071192 95.606138
76.901321 52.639852 93.952218
15.384739 38.843683 93.887230
13.681745 67.777316 99.660936
76.048669 10.169268 98.414950
25.094276 81.821645 83.776562
16.992859 25.502807 91.230153
29.480100 88.372646 80.773540
87.041626 55.742320 91.296042
65.349983 68.972800 88.720875
35.632692 16.977011 80.525675
45.263270 87.042181 99.730586
2.096320 86.954069 83.051325
23.357019 10.456687 85.974424
96.060066 32.678045 86.893990
74.321320 47.485524 95.389809
54.699042 51.531364 89.323876
85.066629 45.890788 95.072659
62.180988 45.393899 93.700048
99.978729 87.573369 85.774129
67.119217 84.232799 80.881859
18.798100 66.219086 85.593305
38.989463 31.513958 99.407760
26.015621 83.125107 99.898059
78.513002 66.044749 97.007233
36.856938 79.748329 90.759137
71.519740 22.644008 99.487661
51.136602 53.307168 85.734553
65.667390 98.946344 94.270286
81.706240 98.510923 93.513633
94.477104 6.845399 94.946877
20.242881 99.497078 91.018388
21.509508 78.349337 99.852730
38.318004 77.118028 89.502343
28.663036 75.534602 95.138878
8.306122 26.019849 98.938804
97.949228 58.322464 98.286129
20.876221 8.537075 88.483615
72.400700 13.511429 80.664079
5.459333 91.651662 83.327785
56.752241 91.076256 85.820217
33.524315 5.587627 81.005111
44.891752 8.108145 98.646794
51.471929 67.973291 89.423343
43.726871 65.961669 89.658203
76.580686 39.940656 88.906593
62.280399 29.953148 84.281072
83.942755 11.314493 85.567207
23.269417 28.953412 83.102738
70.426782 33.871063 81.705983
2.491865 32.427258 82.566203
44.199440 94.759815 82.273939
17.971272 29.939635 91.865119
58.055027 77.366892 86.469950
8.483275 29.897730 96.281706
82.943845 61.232876 85.134000
74.351535 4.275610 88.105229
2.741894 60.611170 96.137363
14.221105 79.737047 85.130438
10.000777 77.247829 90.212621
18.689283 20.789938 90.743091
77.443290 18.223652 95.553817
58.833774 60.695393 99.218501
12.625049 44.209706 84.829265
35.689189 74.652294 90.150567
14.616165 84.046168 94.382136
74.045426 3.369293 87.637380
85.581088 86.988114 97.314376
27.061414 3.309697 85.200825
83.971395 73.074526 86.490341
64.424487 60.873100 85.350077
64.484642 36.876910 84.048067
77.473686 75.494424 84.124442
78.463211 92.982892 80.229878
61.823861 47.449179 98.998692
70.054846 17.610948 82.874513
58.590197 43.710604 98.424367
4.841785 60.643668 84.597950
5.310943 4.854450 93.869293
23.705378 71.954445 89.416018
25.359706 78.911006 81.942503
14.662576 66.921766 98.489006
44.112556 84.148924 98.510098
78.162208 27.851869 96.908516
50.843951 34.866069 83.368985
12.560204 5.657436 87.958648
32.758886 80.509356 88.960989
6.220967 27.077484 82.752811
92.894869 28.452423 92.933157
89.972317 50.994511 90.678846
4.076318 1.026169 88.738273
6.891527 67.832964 86.603016
62.563599 40.470562 89.608240
96.182925 97.489379 99.221294
5.797793 89.115059 82.286342
23.496963 55.680729 91.139163
83.356996 33.564041 85.606470
2.926972 24.516499 99.031366
96.186300 39.894078 89.460543
58.023650 7.437118 90.651419
71.811698 1.434172 92.452514
23.062955 50.300723 87.791305
76.442465 33.982847 88.299720
22.914431 97.580103 92.782460
96.017147 31.781612 97.183939
44.147449 13.143025 83.305213
49.077945 78.789614 93.324718
5.800415 79.772026 95.177275
74.801644 20.042508 99.174483
83.676009 69.111056 88.401072
26.124646 5.054424 80.935674
46.060325 5.015756 99.040192
55.352951 9.618263 92.601167
70.594041 98.790720 93.549822
72.483691 42.092931 97.361764
79.768778 60.371459 96.634172
89.792165 5.270460 99.851727
37.607656 9.679797 85.309828
44.531503 0.731833 82.745432
43.703019 27.117609 87.842182
14.966163 53.801572 89.048319
87.696893 85.080168 87.035146
39.281812 61.402251 89.644251
77.725403 2.258665 95.952247
80.962533 4.716439 86.244273
15.865536 19.642929 89.484934
31.609343 81.327474 95.671135
22.730931 12.119802 92.551631
30.055917 90.581260 98.916481
98.529305 76.056799 99.988638
70.081644 1.260356 87.258488
78.398961 22.237461 86.547927
74.885737 61.466407 84.222020
8.569946 92.251997 82.899411
16.093616 63.058144 83.153216
44.431106 4.677356 85.562434
16.460738 84.297748 84.011445
52.511562 25.127051 84.873582
77.994731 29.007510 80.318975
77.425127 21.291932 89.182288
33.087906 26.373347 96.150491
9.517626 46.614612 95.443930
11.377895 70.488149 83.032091
72.101142 79.976788 87.019139
19.281119 72.899303 82.713718
17.791907 17.133971 97.881096
31.856469 84.378793 96.035186
93.215419 76.933709 81.912083
0.133131 75.546435 87.550690
81.240217 36.385409 83.139874
37.076640 52.251265 82.908873
52.894868 93.584633 83.187246
29.001530 62.496125 83.346799
32.001949 9.883369 97.259763
92.490338 10.969880 95.812977
69.610056 97.027371 92.350578
78.696476 80.201158 95.981103
9.225943 47.388714 92.601191
14.918187 69.397985 85.260470
40.711465 39.866593 85.070688
24.439704 79.066831 94.591653
31.514905 59.435699 86.859307
1.956683 39.405502 80.821788
39.453111 70.655331 90.022828
68.416121 91.601626 81.419306
22.695838 39.695530 97.605092
74.511460 28.304433 98.981651
83.515487 65.090323 90.971017
52.797711 10.381332 97.399259
10.245576 51.448103 92.698098
36.230574 80.948486 81.653932
6.339451 52.408501 88.998719
93.959530 83.381173 96.423162
67.915807 71.105136 82.626020
55.137507 10.515642 80.981086
93.251775 51.174172 87.038647
94.496653 65.082845 87.905257
0.872566 0.123697 89.711720
95.054784 52.983939 86.553064
80.287296 9.055962 97.626794
56.739751 78.836377 96.279382
31.134982 70.107552 80.102007
58.253883 6.879732 82.662333
69.277695 55.148379 91.962935
7.202164 46.171537 96.174932
55.139716 65.111949 84.514420
70.617009 72.844258 97.359399
51.479746 43.597346 92.908838
36.271873 9.721119 85.458344
38.229616 95.434411 95.322369
97.705512 37.180944 96.468701
0.051706 14.378960 88.791243
68.521621 31.675219 96.709595
54.707980 71.636129 81.783253
13.706081 18.198685 97.829227
65.653125 82.164425 90.617608
97.832819 39.128921 89.532525
97.743513 54.088301 92.707180
60.063368 87.068861 84.580702
3.845164 34.062753 84.266450
26.829159 62.492587 92.693998
38.521190 98.654231 82.517192
15.679602 33.001574 97.801691
77.473872 68.547550 80.025592
38.618835 44.684504 90.619610
5.099688 69.232394 99.869105
94.581950 87.420896 84.237743
81.679290 56.899231 93.096738
29.250098 48.906743 87.938578
22.345987 82.874575 89.616492
50.993441 7.301801 85.796754
8.032397 58.074752 96.741566
54.655615 54.278057 90.069689
99.912257 89.480464 82.280527
17.765818 2.624162 96.249235
89.401588 26.074290 93.640543
50.605129 98.528169 91.228796
32.835145 86.071455 94.792614
23.526865 44.833807 88.506794
88.997069 8.409628 96.536796
62.397367 16.543766 89.986781
2.609575 90.097860 88.232668
76.960512 71.732460 93.154677
74.209149 7.828384 95.560102
39.863372 9.235979 82.579890
73.023691 98.147452 97.034101
26.210828 58.408546 83.607178
61.412567 93.682588 97.493070
5.148927 14.064912 97.453647
29.828330 67.343833 82.815975
47.227748 69.556086 83.253547
96.317336 51.010629 99.950423
57.801821 20.207985 92.149404
52.659710 93.224723 92.998668
25.494794 10.404555 93.691473
60.234943 35.282815 85.558727
46.685273 63.661414 88.775012
28.098766 90.222410 96.871398
88.985420 69.076727 96.196441
11.190157 95.567486 93.704895
56.006854 2.995820 83.810050
24.801207 88.845733 85.995311
25.936982 72.478405 86.289498
21.034266 30.535617 84.440007
38.151263 71.596694 98.611781
50.931201 4.618747 97.315085
76.344698 36.808107 95.268604
19.374317 13.767313 88.639617
32.821212 90.306850 83.613049
92.137723 82.968226 93.280970
88.963663 79.706600 94.271689
51.468871 15.379019 92.043807
1.045300 46.824114 84.544908
81.362752 50.789905 96.359172
87.929658 0.984968 90.752618
66.888301 78.477053 96.643336
20.140950 65.635521 80.612646
68.847853 68.270813 84.237034
86.311306 48.445743 95.097238
86.038806 61.405933 84.147969
20.221465 94.644643 87.390823
2.531012 48.408884 86.779067
91.992269 11.327842 86.797599
6.661117 42.953174 87.888942
59.596950 39.689510 90.337933
35.417409 25.757479 85.999405
31.826235 85.820180 83.429443
29.951546 42.648094 91.074184
13.247035 62.482056 83.429187
55.015017 35.616944 83.245485
59.139166 84.370566 87.518966
63.630345 12.862224 95.630838
57.808912 67.990883 81.395204
78.025938 30.772670 81.854855
46.805805 45.332577 95.318132
38.626591 19.482794 84.977635
50.258218 23.194216 99.817480
60.657864 80.493682 96.701154
50.424248 56.949863 89.767196
3.908433 46.267451 98.464656
37.405257 82.625662 86.161583
95.653998 40.237108 88.286589
87.822903 77.744650 82.960063
40.561852 89.266026 80.634324
33.630115 42.021757 95.887659
57.015285 50.896684 86.212169
46.539459 14.982726 85.017254
85.616416 26.386782 87.319384
12.079733 68.890507 97.743314
25.576083 25.408272 98.045093
56.434849 90.941772 92.392253
79.596705 13.343097 86.406504
18.960828 26.185720 90.899685
52.856343 16.101094 97.387465
35.156509 46.966767 96.329200
18.248840 87.586519 89.325624
59.260049 91.416693 88.862652
62.689310 40.681348 93.704044
84.224179 29.489112 86.930277
89.782257 75.845817 92.062262
86.854797 13.121417 83.384571
24.286484 83.180576 94.474723
37.683796 3.702151 97.064737
61.307962 88.333706 88.046946
23.111313 95.959334 82.089014
97.972353 73.998585 93.333460
85.820116 89.513594 85.738948
88.130554 92.165843 81.794813
59.873912 32.549997 93.313920
58.958586 70.283175 90.115397
7.419169 6.452436 98.224100
20.616601 89.683112 99.284644
67.531328 24.366109 95.230540
2.623358 73.804404 88.305391
42.723749 86.789215 99.682682
74.337473 61.391687 93.903808
13.472591 26.244238 81.901838
67.588025 72.042440 91.663517
57.232626 63.631948 82.025557
24.600652 55.203042 94.491145
28.519434 8.346900 85.230678
41.720913 28.318327 83.037957
83.030665 37.594003 89.523328
62.395321 91.841283 82.843581
20.754021 42.432732 84.520079
18.430558 49.995270 86.960139
6.616299 0.804481 80.103920
25.149198 94.923916 82.891492
17.293231 80.170780 99.096864
61.406028 71.943711 99.159022
11.561973 87.101244 82.288943
46.634644 80.433926 83.081540
50.136412 75.673779 99.245051
66.417561 66.800697 91.620537
50.219729 55.986441 96.006679
16.661046 14.202481 91.309079
22.121310 38.407944 92.028199
45.609642 18.202278 99.492579
52.815344 61.392751 86.235011
62.669124 73.452537 96.938221
66.445564 49.126747 95.321169
80.010860 88.590213 93.770561
12.865128 45.371097 80.620495
37.611493 4.409307 91.971165
92.783214 90.492217 94.160200
83.534613 96.678385 80.621009
74.298314 71.555661 99.649308
9.000772 11.568502 91.921615
3.385259 52.628361 86.974393
12.352697 72.413347 92.490894
96.592783 61.527911 95.748525
6.977150 97.234813 85.473928
37.519099 55.353084 80.892964
5.858539 32.709718 91.868650
99.289674 89.767777 90.389572
7.205647 84.741042 84.453640
86.041164 28.239838 80.928695
2.341555 96.703357 86.412708
17.607966 65.710074 93.929953
95.787504 37.626333 94.258344
69.621721 80.327565 92.433202
0.434749 52.677773 90.974612
20.640680 28.637994 88.946313
0.667347 5.339633 80.365921
10.297716 48.183793 96.241180
92.149312 82.801765 98.210337
28.752142 37.918026 87.765762
3.153043 89.039461 85.505612
28.942070 36.164582 83.805842
28.927806 42.289943 82.927445
97.374386 19.379870 99.643813
87.953190 94.819890 89.937192
83.221365 1.077454 85.661659
14.000207 86.192148 85.531876
30.275904 75.989072 84.815205
54.519919 79.998997 94.922015
4.105481 26.411798 92.014295
80.778857 53.287205 83.811294
81.082004 59.628968 81.235801
