49.550304 57.220981 51.853836
56.975059 56.444163 39.163347
44.676038 49.015973 57.206638
39.398109 43.357737 48.570322
48.514369 53.603840 44.094824
54.270222 49.239961 41.637845
48.069757 56.816430 36.781235
55.252363 42.201802 42.055977
55.031401 54.308657 37.958913
36.169090 48.484728 49.077341
62.810497 55.908544 50.901260
57.780343 40.921881 50.527140
55.958384 45.619383 51.397286
51.579466 54.454254 49.287922
46.530168 42.229576 50.633502
51.647729 40.209940 41.903857
50.226373 42.602070 44.461459
60.229530 51.519144 41.814197
54.192763 52.244983 50.508884
37.300835 57.077647 52.774152
50.564501 41.570766 50.009644
50.371656 47.018538 37.709997
45.047918 39.784898 59.753968
40.338359 57.843175 47.187462
43.269900 46.563566 57.137257
43.024387 42.788563 56.538424
45.938148 48.236495 48.708336
62.091779 56.489665 45.722277
60.114558 52.308294 54.083719
37.118614 49.993671 52.888031
39.119058 52.806147 49.304930
55.340612 62.464250 44.150289
46.344969 49.269659 37.635862
47.504083 56.813663 39.978997
42.463608 43.459503 57.228290
40.411577 52.319125 45.167477
45.080222 42.757911 45.085007
39.707331 48.982606 42.180860
59.907487 53.362307 51.580605
63.597694 49.910048 48.449826
46.565670 45.247550 42.549481
51.510491 56.565495 55.491040
49.836850 44.952225 56.756972
47.653757 59.141368 49.626221
62.947355 53.112595 45.669422
41.681070 50.253202 37.909266
42.972320 40.440748 55.409596
39.533088 45.527107 49.599464
57.487897 47.450014 43.633579
37.373592 49.067485 57.700695
48.146240 61.227171 41.522205
61.268436 46.769204 51.582084
57.285512 54.318825 40.215118
53.642383 59.694746 55.865083
45.699507 59.043562 52.066353
56.802844 52.544533 42.012089
57.186674 36.980122 50.037866
53.030720 47.442856 56.995288
57.868896 50.080804 51.396125
46.249006 52.017720 57.805232
55.635852 51.882166 58.758985
54.657361 54.435661 44.881411
53.456385 55.464286 60.071333
45.963241 59.179804 39.837630
61.484244 44.551003 56.442171
48.397539 36.788620 46.147576
39.286339 40.150754 52.443112
59.972606 52.515555 50.365167
53.269460 53.422114 54.023313
53.111731 44.235301 52.427509
49.043031 57.248718 55.160258
53.313709 48.790175 40.017395
56.177388 45.756875 60.180183
49.056289 40.334488 45.653760
61.949818 46.788927 52.111184
41.922989 57.126053 58.592420
49.672188 60.446446 46.220015
60.326938 47.800456 56.055684
62.807285 46.127512 51.706129
51.013792 56.695630 42.520794
56.108875 57.865778 39.755024
50.447440 51.941483 63.372578
54.684491 52.064979 55.824795
61.942142 51.099936 44.900496
50.865021 55.534611 62.297874
41.800664 44.539359 45.615567
49.882909 39.381865 60.426331
46.684527 59.951685 56.394681
40.061478 48.692622 39.770797
55.222033 56.230630 52.330052
48.669710 63.813919 51.485968
52.962259 50.088451 50.518179
47.571509 48.530203 35.580305
43.576928 45.847291 61.677019
53.630351 51.896496 41.987194
52.628347 43.693231 48.455018
61.458065 56.660177 46.940507
43.303634 40.250029 47.125623
53.940250 48.585966 60.960904
37.658232 44.420078 48.927321
39.122373 55.344106 50.696413
39.799714 43.399729 41.915274
63.122928 51.124956 50.703570
42.476938 52.416331 51.706095
40.791013 46.284723 58.497438
45.659430 48.286008 53.475001
56.506149 43.596494 53.821139
60.113293 52.956798 58.886861
44.974433 47.303408 56.256963
47.895412 58.853700 38.818678
47.398667 60.678190 53.361422
53.633505 43.267734 39.078529
38.475380 48.245150 52.062214
41.666779 51.125055 47.692767
44.387120 50.478169 43.334069
50.433334 56.277947 58.690687
60.815390 51.014511 41.241018
56.627657 61.633009 43.259246
39.327634 45.590681 50.898815
47.746079 42.926531 61.192966
46.047532 48.962595 46.790752
48.557168 51.873770 63.911151
50.432697 52.425050 41.296765
44.800265 47.029130 61.339642
47.497736 51.415635 51.768725
47.997506 55.398714 36.800197
59.587682 56.221356 42.545461
49.757483 63.795354 49.992767
46.832164 60.406462 57.691130
52.552330 42.338184 51.750637
51.665001 45.029892 61.031150
48.899148 48.481066 56.621642
42.701050 52.020052 45.248143
38.376772 43.254606 48.244671
45.297794 38.328270 45.100215
45.827756 52.538178 63.754960
42.571397 59.426940 58.767943
44.800137 49.451798 58.658553
53.770050 43.101856 41.471368
53.979185 49.171617 39.447509
43.223070 41.429827 51.230042
47.961230 45.287157 50.489516
57.341190 51.266714 58.899921
52.283427 53.064235 39.481326
35.719583 51.361227 48.399284
53.084262 57.713059 51.593474
45.516262 41.643814 49.825333
51.979352 38.527959 55.372159
47.006958 42.241484 42.420090
41.620149 41.999586 59.131265
45.294578 51.845952 45.434159
61.770669 43.386552 44.075833
42.401838 51.042097 51.544912
50.034458 40.610367 59.128003
44.467209 46.156783 50.344161
58.120741 45.905265 55.341698
52.670717 57.718033 54.018876
48.876628 53.721163 63.428263
58.892027 49.374017 48.831993
39.775767 55.017224 52.099164
38.717118 54.363970 50.542577
53.084415 55.017620 54.318652
49.029955 47.871726 48.972690
51.992478 61.173440 55.609838
47.873228 63.920898 45.198871
41.851819 46.817587 47.945373
58.850834 50.374162 59.915354
61.915443 56.049218 54.248199
55.018064 46.507982 48.454341
54.888293 40.015904 50.232272
48.404238 58.322933 38.658181
45.087506 50.390582 44.221459
53.033741 51.699782 48.517080
50.139265 64.021038 49.951610
49.276433 57.142699 50.078206
55.817261 47.187291 54.725117
40.173628 59.811099 47.671644
54.768268 40.571823 51.217839
56.805482 56.258827 43.344553
51.876358 52.047923 56.867703
38.646093 44.927834 52.366337
44.175165 47.669872 55.346438
43.157341 45.610139 52.810338
41.313360 52.092504 56.315845
54.555188 57.965437 46.703892
54.363343 48.530253 59.570324
41.226748 52.385030 60.472113
56.965968 42.437118 52.145936
49.381419 38.134424 46.515072
44.001616 43.316952 41.960547
55.093688 61.914488 57.373146
47.248293 53.629944 37.986352
57.074868 58.578933 54.641480
63.267102 44.148055 48.817071
57.420701 40.348270 57.098741
56.140348 46.065322 38.167243
38.748328 53.627534 59.005477
51.047355 53.360664 44.038181
52.744836 58.676316 48.920300
49.897888 52.041344 53.114096
50.669949 46.682246 60.684088
44.393226 61.267442 43.789231
51.678776 56.049247 38.557480
42.559513 51.674822 53.108493
51.986562 54.427895 52.673998
45.645881 39.956876 46.520491
56.732374 50.469749 49.611643
44.351012 46.657210 57.916634
41.347798 46.451731 44.587972
50.363357 53.905293 59.001946
52.541638 61.970397 53.519204
45.038214 57.303809 41.837885
50.081258 35.756526 52.328662
45.787959 49.853638 49.301112
59.526570 44.461264 45.562320
44.948005 47.748538 49.103748
51.087073 42.979169 60.975114
56.189016 57.069271 56.004464
58.568654 61.664948 47.624523
36.510793 53.535653 51.183498
50.018269 56.239544 62.004041
42.223590 57.829104 49.070719
39.744097 50.360331 53.194402
42.204902 42.701680 56.859211
51.472774 50.133820 57.912678
39.802014 52.711438 53.960528
44.084094 56.710122 58.363159
55.129784 55.973171 53.134200
60.118572 44.433540 49.701280
55.806359 60.058558 47.240284
47.463154 58.080739 41.692148
47.923037 55.897585 61.640859
49.999825 58.750969 62.150335
47.894369 58.566217 58.316808
42.846106 49.856480 41.151576
51.304286 57.480541 48.272726
51.075553 48.865739 40.727357
61.601914 45.201263 44.292289
55.758916 43.284142 47.353174
43.015677 42.653044 43.227959
55.086858 44.383552 51.025987
51.486020 61.578874 55.192916
48.601327 56.552649 57.705315
63.583211 46.139232 48.668357
57.472079 50.277783 50.712010
47.557282 47.783904 46.056804
55.509573 49.844040 49.902509
47.525016 45.418460 61.565800
43.321051 58.668542 48.764064
41.974853 52.602819 56.965635
52.682147 56.714013 55.888673
55.477678 44.637428 44.784109
45.237860 63.513437 51.671286
52.613926 62.560960 45.727480
47.317604 59.817452 60.314082
63.598815 51.222104 46.902557
45.803737 58.220735 41.115921
49.852691 58.644886 51.498000
51.679645 47.296941 57.378085
51.315987 53.785154 45.082386
63.056431 51.226316 46.150405
46.272513 54.759388 43.285087
39.234560 51.393562 44.636799
52.108598 54.345199 38.627668
63.638682 52.697003 55.208989
42.125811 56.324245 54.099143
60.360762 54.525835 55.251817
50.458465 46.635611 50.644359
39.201352 50.956803 45.152206
41.874148 38.485969 50.789821
59.070022 49.007818 59.571871
43.386057 44.301499 44.218529
55.925107 44.382266 48.500938
49.095868 43.271596 45.071147
56.604679 58.595401 56.232824
55.531132 40.555585 44.101174
53.500677 38.659811 55.531604
50.210120 59.886909 42.672926
58.753888 54.343156 50.804522
44.649288 54.012232 47.618838
48.946284 55.839913 36.616024
60.487765 60.641515 50.014873
50.612563 58.811168 45.661255
48.924178 39.993048 59.549655
41.827773 45.122060 51.059315
41.843015 41.804674 43.402234
56.237475 56.788093 47.978001
40.605731 56.351988 48.062038
40.978142 59.432827 45.079328
53.726816 53.114097 54.308220
42.506815 56.128572 60.408021
57.171127 46.846294 41.615287
42.272608 50.870726 48.860170
41.745635 57.078914 56.127953
40.489198 39.715656 46.635210
47.825298 47.147967 55.384545
39.352006 43.796305 46.688148
46.047437 47.979426 52.257525
46.889273 37.468283 51.832779
48.768865 48.583257 55.894778
45.150673 46.388404 42.277227
51.467565 48.639008 51.747460
54.099760 51.530836 51.077826
43.505793 50.889155 41.859069
38.592452 45.597656 44.753398
42.694414 52.482107 54.712025
43.966982 49.201788 60.450855
54.822241 43.324864 57.531518
58.364597 59.281409 43.895985
44.467373 49.379071 54.779817
52.323491 50.045008 39.201484
54.628881 44.514348 42.474204
51.774911 58.254297 59.511936
53.326212 51.714565 47.400939
43.794852 48.782476 42.204585
44.469865 38.801079 44.644221
44.602338 47.501606 44.564121
50.382146 51.489169 48.436475
49.960401 55.617762 41.993575
51.824546 53.526599 38.575366
42.311839 57.384758 50.363410
53.670888 46.340114 48.190359
51.421130 53.978929 52.841143
45.174107 47.566861 60.774069
53.047883 50.380658 41.822302
57.767162 47.080972 45.093297
45.791275 40.813879 58.667479
45.585163 50.507782 54.531888
48.134342 62.556548 50.726897
39.997388 55.503682 56.951668
50.752447 45.695378 57.173122
52.838242 57.247969 61.394924
47.446546 41.059588 39.091461
50.465571 54.848049 36.735172
50.752539 35.998313 48.837156
47.578112 58.964652 54.377495
37.283802 51.497869 42.417628
57.571266 57.896412 57.442827
50.033389 49.399339 50.760768
51.244892 40.446642 60.862541
46.100998 46.266778 61.196192
56.726740 56.028168 50.093315
57.224898 47.640938 50.317609
59.465922 56.447045 57.766774
55.057394 48.936627 63.301473
56.485188 57.297343 42.042457
59.601412 43.414095 52.515098
40.801410 45.343967 57.102899
59.690871 55.599907 43.297998
36.722179 46.116271 47.917912
41.424620 56.225457 57.294651
36.366711 47.719251 50.274565
55.146064 62.677778 50.220835
42.076798 38.271853 47.714978
41.004939 42.318075 43.180631
43.851583 59.370055 52.030576
53.518747 43.005254 45.299377
49.608933 56.642591 48.170820
57.156494 42.149008 53.808046
43.585420 60.604379 49.073083
62.151885 52.904442 45.816529
61.409433 53.445503 45.784771
51.912757 51.737928 59.984831
47.756100 60.397503 45.597575
53.803830 41.273858 39.191628
59.736967 42.486191 54.177011
41.320263 57.696845 42.097278
39.945856 50.341579 40.055348
45.324455 47.752901 63.730221
36.105230 48.322190 48.205172
56.155843 47.245477 38.271392
40.495835 51.084655 39.481618
49.030703 54.030389 41.538025
43.240116 38.044262 46.489933
58.758248 53.485179 56.813236
48.660870 42.537402 37.415982
63.493924 47.601777 52.373116
48.456586 37.745170 54.660985
44.188302 44.140008 59.763123
48.396401 55.894465 44.240153
49.919789 58.492765 49.475492
48.733921 52.197345 60.549970
60.776039 54.095924 53.674601
58.253976 56.964094 43.949712
42.181526 40.688002 44.986731
55.046029 37.250455 54.384339
38.233589 57.319277 46.057039
39.865919 46.546163 43.149086
38.845628 50.068259 47.975245
60.160524 59.685963 53.542157
57.815312 49.485862 45.927401
44.605563 51.061553 63.384641
44.683602 55.080143 60.685934
41.138127 55.200233 55.341747
37.504876 45.611566 53.945279
45.765112 57.833207 44.983644
59.089857 46.767305 57.835833
51.418237 63.634436 56.080017
60.891415 55.080071 52.206425
54.842221 61.964778 50.679164
47.955359 44.740896 54.261977
54.041041 41.886567 59.894164
44.416844 42.586935 48.693420
50.470405 41.982356 42.700850
37.243039 45.294538 48.511564
42.930506 59.607573 58.666324
48.139639 57.248445 40.430183
54.274959 36.912178 50.137924
47.971737 51.864651 47.004434
50.393115 61.743967 53.644862
58.590716 47.168175 41.743383
47.368041 43.525031 43.576827
59.921650 42.099783 44.900813
59.484622 48.871266 45.999601
40.430044 43.455901 55.224711
56.846976 42.703977 42.546787
46.818623 59.959837 49.734003
55.854991 58.892578 60.291787
52.760068 54.730663 39.010703
46.271600 49.324117 46.350629
42.720827 55.360742 60.009813
43.230961 54.135015 45.717173
57.629989 57.561181 54.484738
55.119899 38.713800 51.187488
54.738894 41.796529 47.415737
60.278264 58.857678 47.040657
41.858752 54.201668 47.664772
41.320460 44.297893 52.481197
40.696963 51.572918 47.068583
57.771336 58.584606 48.654140
48.685957 56.679857 49.598431
43.086560 42.874152 50.120515
52.607205 45.638994 36.949199
48.816524 56.897264 56.687974
48.699885 39.980098 41.299919
62.627154 56.204900 50.071381
54.253983 61.194598 50.143334
58.638711 47.382625 40.010182
55.931411 47.268371 53.280369
56.883935 47.840884 41.843772
39.851075 42.939100 45.881044
45.462536 36.583204 50.985365
47.513530 54.290713 47.727642
45.153749 49.096325 45.496059
43.108397 41.454428 59.195702
55.841212 51.926903 43.161943
51.798168 42.380038 51.684406
58.899423 45.677991 42.964497
50.388799 48.944672 36.782188
51.858456 52.983426 44.354110
55.572118 53.604772 59.048988
40.771544 52.453101 55.924381
51.461821 50.863887 56.792999
46.457033 46.007104 47.852014
47.810938 40.871456 54.381147
43.677101 50.377193 58.649267
49.696304 47.371043 35.493440
45.782653 39.686212 48.285717
38.175453 56.007152 48.915404
47.527264 52.691837 45.996623
40.247711 41.262374 56.691040
48.138858 53.097723 45.692810
40.177308 44.204028 49.307595
56.852412 46.915093 62.177166
45.604979 44.332907 57.466097
39.983678 55.416160 43.347219
49.420834 57.065632 55.134829
57.454155 44.472513 47.125599
58.322014 43.055008 60.008643
41.951001 56.803208 45.512089
46.256104 48.393555 57.457482
55.713367 47.707111 59.551818
55.790951 51.748782 37.607013
51.504028 49.748943 49.378396
53.150258 47.598660 50.041720
55.868634 40.089931 45.656131
56.015095 54.004548 57.978641
38.366969 54.819859 49.997748
50.366583 37.811840 48.106058
48.867546 47.143333 53.825796
42.765163 39.949074 44.848648
48.788312 57.732746 60.267289
53.005665 42.179428 48.766066
60.170662 58.108845 45.599148
50.263578 56.425542 39.871097
56.314406 59.401849 45.104354
43.439992 49.975577 43.829756
46.072259 55.494528 48.841361
57.813388 55.924645 56.652120
41.008617 49.957664 46.736067
37.982653 54.184118 49.054245
49.011299 52.848041 49.808269
53.144195 44.894715 49.988775
61.222534 53.720147 57.787888
49.841263 44.291875 61.461859
55.991787 49.619154 37.736538
60.485487 44.099957 45.907460
60.186571 44.456838 43.659158
49.296652 61.874388 46.349988
49.190215 45.971106 53.714084
53.659116 54.198364 49.710018
47.167399 38.182672 53.692675
45.691236 39.600296 57.125088
58.825908 58.244716 54.844830
48.503605 48.258701 64.640389
43.832431 53.340846 59.729235
62.311547 54.058765 54.112007
57.062629 59.715449 47.021872
49.040867 48.177191 42.269056
53.184292 45.368988 48.311836
60.801769 44.442685 49.114711
42.954405 57.704307 52.087152
49.356035 61.812843 43.559512
60.076698 46.721622 42.587088
37.550731 48.210155 46.525297
42.108269 59.252243 44.456442
48.446444 45.352714 36.149941
61.684035 54.395014 56.823961
43.822960 49.920415 50.940473
51.556292 49.000841 48.130755
44.966670 41.387186 43.838048
49.569479 58.249585 40.565342
54.843419 49.450552 41.371178
60.171959 50.865842 58.250799
43.161430 48.339786 61.159011
41.504566 50.563361 57.939014
45.462999 45.338811 56.137040
48.921435 46.317463 38.328715
50.975401 55.650802 58.209441
52.988370 55.437861 47.336903
57.762614 44.672781 52.855625
50.962694 46.333081 38.981449
58.446207 52.816521 50.210428
51.303615 52.337785 53.119491
50.711156 54.811125 59.431308
48.209391 46.004201 47.294060
47.372098 47.461696 37.876773
58.053254 60.863660 45.466054
48.229439 38.762070 47.511006
48.901342 50.804388 45.620499
56.747273 55.283375 39.098310
55.844616 39.621247 41.472977
58.385040 49.409055 47.964646
41.012336 49.737220 56.982311
63.042005 48.901732 43.562182
51.855776 37.539986 50.449176
57.921273 45.938600 50.474057
53.013668 49.676518 49.167037
40.197769 45.658704 59.376720
50.449188 37.757042 42.315188
51.341282 48.499866 51.089463
38.165984 49.336566 46.597662
58.787221 56.404561 42.686827
52.684449 52.777585 54.537581
51.771078 36.664914 50.107721
52.381275 47.241672 45.790998
55.912791 47.461765 55.866315
43.727191 55.848045 53.926524
47.803346 36.211124 47.579322
51.269908 56.328993 51.881387
40.633560 42.810711 52.426125
41.039455 44.153309 43.673534
59.621237 52.738627 56.913613
55.697081 44.798906 53.783521
54.223419 58.006130 56.243486
48.162327 54.577920 37.824466
60.073656 44.325164 51.086648
46.682204 55.896803 39.611156
49.119056 42.531552 46.980922
47.254539 63.153114 43.399746
53.517460 55.194225 52.314492
48.820875 56.498250 62.876033
56.756102 46.248814 42.964944
54.070103 41.057595 49.403005
52.863878 42.622284 43.123873
53.418588 47.625717 58.754850
59.019458 55.379025 40.298130
42.295391 47.179328 43.569863
49.405121 51.525194 50.429914
48.370525 52.662132 50.186223
51.960479 41.030765 53.902838
56.639247 44.858509 39.777566
61.217135 51.597235 46.258974
55.751921 51.467162 52.741196
49.972289 58.466989 56.908189
39.134266 41.981060 56.326097
57.728210 60.061948 52.805870
51.502896 44.906919 49.281898
55.827144 46.477052 45.083269
49.261199 62.833393 52.136231
59.026739 56.025911 48.784381
40.360021 53.742710 49.621259
59.376673 44.484087 57.728237
51.318799 54.096859 49.390701
42.936612 52.063067 49.825990
60.404464 57.171368 45.895498
46.259780 40.352559 54.719335
37.222092 49.181271 45.668029
54.690217 51.928888 61.671592
40.709115 39.707747 54.390043
61.985411 55.052140 45.956593
37.777180 45.990563 43.880611
47.965066 61.897443 43.197668
56.039312 54.764062 56.012002
56.264025 53.555146 53.861679
51.910767 64.135608 49.990988
57.499284 43.694699 43.467250
46.987529 52.670178 39.901802
54.610351 44.668814 56.365142
61.380836 42.234907 53.828514
36.359249 50.158885 50.416336
53.561972 50.031138 49.313539
49.841767 48.264486 39.700435
38.862094 47.279295 43.362244
53.729518 37.256631 47.474232
50.288769 49.819196 37.140677
53.228855 37.952546 55.900982
45.430049 51.539278 52.677581
47.514426 60.644870 57.123617
55.326330 41.157094 43.778998
52.075996 51.203813 39.062344
46.706213 51.688765 55.708531
58.997784 50.364848 45.813184
47.182047 44.727203 56.408676
42.628020 45.699006 60.332130
42.703075 53.796241 40.437235
40.593031 59.711974 51.366378
52.234304 47.730057 63.304428
53.566438 57.855028 60.908643
45.186048 55.552707 57.734298
41.046143 58.317036 55.650399
43.403460 59.889556 51.673432
38.730884 44.812319 56.471150
51.330997 45.795345 57.067290
49.708091 56.569482 45.870808
41.663815 44.008689 52.339971
54.931080 62.451810 46.769032
63.551364 47.522887 48.068719
54.704437 38.931452 51.977245
50.971818 36.814197 53.923404
49.075010 43.917995 43.676363
47.454134 36.312360 46.623034
49.371178 57.224164 40.647778
41.904031 47.314284 60.751123
42.875531 53.647444 43.146783
42.167763 42.953887 59.903966
48.323344 51.589467 35.353809
44.661122 47.934294 57.100151
53.229498 39.478525 54.530666
44.196245 62.782347 46.188418
59.746419 44.632938 58.581114
52.692586 50.704298 40.418915
56.926967 61.857889 47.800317
42.098893 42.119066 53.946092
48.932790 46.644667 46.111654
56.342477 38.844927 47.782702
45.124958 43.015770 39.329512
54.370360 53.979099 54.001124
48.749876 51.136124 61.453529
40.873798 54.442497 51.514071
44.482920 39.991609 49.982263
56.576971 61.345488 56.834843
49.495963 36.771832 47.311915
52.258036 47.804226 41.031681
57.318810 50.519270 56.199705
52.730215 52.338906 40.116513
54.205328 59.347187 56.298300
57.812827 51.521589 56.805155
55.210699 51.447832 57.262076
50.745866 50.594768 58.653706
44.389564 49.834252 45.148838
38.703160 58.711939 51.672526
48.112811 46.717499 61.741388
46.786014 53.032437 37.298253
57.422127 38.996808 53.473379
49.172846 63.380109 50.439513
55.948988 44.700215 41.965987
57.771091 42.130838 54.566934
50.680782 57.696357 61.955917
58.922202 46.614360 47.050272
46.419289 51.958207 49.912134
48.531819 44.107290 40.998919
45.060357 46.397224 49.944397
54.867489 45.899424 44.844370
60.366666 57.561538 44.784994
48.928636 50.112210 64.116279
41.361972 45.320463 51.046038
49.266368 36.078369 47.274134
45.216471 44.760931 42.405520
56.174161 60.173400 48.301257
43.901753 37.178499 50.451229
59.514362 57.935178 47.750184
36.666716 54.513426 53.538149
43.553730 44.091030 60.092643
48.080908 41.969607 41.238399
63.666731 53.186762 45.654180
58.476215 53.148995 53.317775
43.435273 56.274106 44.470691
62.137203 47.447787 56.592397
56.069658 56.401039 47.921860
51.062101 44.809783 42.203231
42.817015 49.626811 61.377946
51.037416 52.234459 54.415932
58.209549 42.188874 53.959204
54.476124 47.446094 62.025866
55.899627 38.905417 48.239354
53.757122 60.309781 48.612016
54.337423 56.241669 41.210390
37.526781 46.304011 46.367522
55.086935 42.369667 41.322897
58.415124 59.600169 46.631273
47.615173 47.795396 42.230388
53.434828 55.972841 61.238032
53.196836 55.313496 60.125635
37.608330 42.217488 49.427507
49.243083 45.539733 62.973027
58.600158 53.058963 61.070339
56.059141 49.218509 38.853356
41.172079 54.504845 58.432933
50.436359 47.221962 36.055399
61.912769 52.543316 55.813104
43.504503 46.363604 62.221255
52.792105 58.151901 49.793886
45.348828 44.016935 37.254469
56.580115 48.587783 55.710697
48.062004 56.234374 48.762981
59.921900 44.016775 53.305095
56.212252 57.515717 47.150942
58.644780 47.642865 42.008866
46.903908 61.835350 43.131498
53.164704 37.741753 50.088518
55.933207 36.509780 49.376900
51.579017 47.644121 55.020883
37.621795 57.003001 54.174119
48.403554 60.985673 46.868048
53.762091 48.064059 37.278548
44.278284 56.951221 47.585238
42.224595 51.871404 48.026726
43.368721 53.644126 60.560982
44.275549 49.248000 62.116283
39.714413 53.740189 42.411758
46.971703 47.492824 49.759352
54.478159 39.687517 54.290658
55.658978 44.067211 47.664992
56.989107 41.270619 41.170812
52.332472 57.852576 46.503940
56.181879 57.462961 47.605669
61.952299 54.743197 46.323171
47.454473 47.056536 42.461869
36.370006 45.429936 49.190802
40.306059 45.772140 46.547337
54.101682 43.224124 55.694672
53.436942 42.718828 55.197262
62.575652 48.535473 54.712207
46.333302 37.663834 47.331101
54.204364 54.828317 36.787402
50.491089 63.217336 52.072626
35.797295 51.268820 49.943547
45.006783 60.399556 54.287123
46.667748 41.005492 58.601819
43.733633 48.904652 62.789973
52.724637 48.029989 36.370318
56.182151 41.176529 49.164225
40.991380 55.794625 42.479028
38.886484 52.599027 43.127429
44.785610 58.415761 43.296329
47.895181 46.523659 40.570855
60.765578 57.047833 47.316565
41.162727 39.436704 44.479366
47.720444 42.616485 62.271118
54.133885 62.656226 53.036180
50.588705 42.049808 62.050304
39.588137 56.133356 49.678706
48.586935 61.963044 58.780030
46.188331 57.994157 42.930969
61.250048 58.913443 51.938198
50.419904 55.519131 46.608475
46.950875 56.422661 51.446502
51.211027 53.007347 45.364002
45.272398 54.973408 58.663675
51.249632 55.256356 39.446046
47.993879 59.291158 39.464300
46.866892 57.022716 40.319283
50.164528 58.744896 49.353803
49.942369 46.210394 59.951800
45.994885 62.783002 49.495853
50.483626 56.192015 54.082249
55.297907 41.796875 46.866789
53.097739 58.790826 56.282104
47.299861 51.231146 58.924800
39.623811 49.275555 59.099560
58.372496 50.141667 47.780440
63.061441 56.118935 47.674170
45.421898 49.458312 42.078022
50.886179 63.478037 49.638836
54.940445 59.759871 52.678217
38.211091 56.360471 46.066064
53.541880 38.602536 46.285109
49.454427 62.212478 47.503015
50.962074 40.482319 57.267239
59.342456 52.740762 44.234954
52.397662 48.896610 61.615654
53.768269 41.571005 55.953937
55.197621 47.300866 44.866174
38.269014 47.370878 43.441765
50.952910 47.074038 62.962300
43.243815 53.378026 50.844581
44.854105 57.334088 57.277192
53.711659 48.638335 47.118354
50.017179 57.664224 43.094363
56.889309 57.663337 40.172093
62.425039 54.081557 46.298385
47.870524 45.603578 61.840122
56.762504 40.341595 50.033187
35.256717 47.949142 48.825758
60.100738 48.120922 51.900469
52.377915 51.562666 46.551310
37.021104 45.816297 51.821082
48.655659 62.895433 52.177124
60.933748 55.356528 48.350787
45.500031 59.637591 47.854520
53.889129 60.581744 45.778374
49.816871 50.488959 36.792354
49.088675 38.512786 49.814133
57.975351 47.223171 56.653441
54.609941 40.816049 56.103215
49.979277 62.566784 53.069754
58.954404 59.647372 50.503655
59.289719 54.349147 53.805704
46.979119 53.257838 43.902564
60.588145 48.249934 40.165091
44.087165 45.799121 55.410114
48.559591 40.208897 44.634572
45.083788 57.787961 50.196422
54.078400 56.148584 62.502082
53.221953 50.242476 43.013850
37.643987 53.700678 56.085793
56.899135 49.707771 61.331023
51.582801 37.442708 45.944880
59.413685 39.520032 49.755177
44.883093 51.435990 62.271763
53.652635 49.322627 52.959541
50.548144 56.884860 49.055004
41.439295 59.881909 56.450485
52.009674 50.909990 41.977307
55.650508 61.973873 51.283932
43.100395 48.544651 55.623869
58.373405 43.188432 60.155893
48.744889 52.304220 40.060243
57.250838 47.907141 51.994137
44.483061 63.159868 52.862919
52.003630 57.407743 56.255496
47.754594 47.599604 52.808261
43.780578 41.026056 56.721326
39.883558 59.271853 48.012981
55.981426 57.388893 44.962647
48.426562 58.387067 43.794725
40.230714 46.423779 47.732271
48.954471 42.231974 49.768760
61.113975 50.939994 44.477237
45.361639 46.405262 40.862185
39.270606 41.521072 47.654800
43.644574 53.205503 58.181718
52.685751 51.836959 50.842597
43.933835 49.194737 62.347460
54.200656 56.946230 59.642900
46.981846 56.721742 57.081274
55.181263 51.939534 42.593823
57.086732 60.050272 43.833313
48.903297 38.296944 44.561558
37.000604 50.659793 42.870617
37.939114 41.615681 51.889750
53.556555 48.542776 49.580207
47.447607 61.441473 54.965048
64.294220 49.789523 46.972787
44.455609 54.063058 42.534002
51.132228 43.049225 63.222481
41.087991 44.800309 43.441709
44.108461 41.785730 51.168128
42.002526 55.041998 59.020147
45.543355 47.157002 59.993810
43.124970 41.263102 50.188018
44.495340 63.569634 52.774006
59.802050 49.596726 38.679358
56.710435 55.803369 38.420130
59.634864 57.521708 55.974117
52.019874 52.306034 55.049945
45.594756 55.002987 44.954017
51.134147 52.667817 40.740622
56.630800 57.040635 57.493365
55.504329 42.446522 41.289936
39.564023 53.261760 46.865832
54.036256 47.395565 48.505789
62.199568 46.819224 57.749284
42.453657 55.154011 42.919535
38.420487 45.673354 52.187994
48.495033 49.901992 55.166695
57.922547 44.711195 39.563190
42.210933 50.934720 44.156254
57.202058 55.589532 50.797182
56.745337 46.158632 44.182450
45.000848 56.720180 45.718722
51.010377 49.938445 46.930431
46.283221 37.715052 49.451774
47.609468 60.756326 58.590646
39.800619 50.038291 40.016515
54.031075 54.277128 57.991967
53.000033 58.892828 41.428382
36.492756 53.665274 49.414307
44.609504 57.645017 56.666620
56.453771 57.507905 55.446155
54.237501 39.343645 58.366826
54.884793 53.622507 42.564924
52.837360 54.795774 57.295537
53.624067 64.290976 51.547532
58.781975 53.189357 61.133222
49.024726 52.048675 39.624061
47.398647 41.235929 54.280067
57.297246 59.980601 43.838167
50.793588 58.344202 54.737696
54.875090 59.642875 44.527084
52.408599 44.325224 50.191620
54.251413 48.999704 51.130580
56.282343 52.119388 49.174859
55.452690 43.895790 57.180379
54.345348 40.836585 52.185517
49.749537 47.078398 39.216869
42.518742 61.342238 43.744987
48.937955 37.404719 49.959421
54.898082 62.687549 54.520167
48.814684 57.184575 50.054538
42.491193 45.103095 49.408756
52.228271 61.736831 55.664669
60.450725 57.567986 46.010914
56.358582 49.446866 47.535948
60.755621 50.277146 44.633463
43.067603 47.896100 41.255360
50.720936 39.339923 52.491075
48.352807 39.608503 55.945874
56.347122 44.334796 39.832487
48.141456 42.415837 58.782710
45.808763 58.540153 51.292830
50.184669 55.885766 43.817789
43.788184 48.482422 58.645186
56.246615 47.225854 58.014496
54.255007 62.402473 49.966795
53.414004 49.362421 60.686182
44.741428 54.583710 42.387055
58.838506 46.989769 48.195156
47.738859 42.338102 46.623643
61.142027 55.496048 44.775629
53.311890 48.515377 50.602879
44.047559 36.709573 50.931527
47.871476 50.702752 38.165197
44.897267 50.851580 46.066002
62.516759 42.227866 49.867042
47.123333 54.532510 37.414901
48.877980 42.247628 46.297880
45.652837 41.978015 42.008484
46.715658 53.064311 58.024763
49.646219 52.751155 49.618075
62.367591 44.331167 54.869550
50.153777 59.206038 57.544872
53.711539 49.396385 60.058307
55.425364 42.675124 57.833260
50.069734 38.164409 41.591478
41.305148 55.550830 39.310638
63.043589 50.729046 44.969158
59.805862 59.395469 55.825602
39.680988 44.087368 46.939596
41.596272 58.152009 51.302982
53.697001 62.079784 48.960962
51.998974 55.699247 55.112252
45.482664 50.658801 42.235586
46.316511 42.170136 54.900099
44.054333 50.563173 49.580872
52.934482 58.308174 47.898951
56.677196 52.475860 42.464427
52.439171 43.143464 51.202347
53.448629 49.953870 55.544611
48.583397 48.304637 58.839142
49.057933 44.475155 39.094092
46.320816 53.643050 44.607888
54.777690 57.097441 51.491000
38.542068 55.798980 52.769048
42.361130 46.923351 55.488873
49.580373 47.862126 37.837049
49.618173 52.828596 43.679407
61.860285 48.932149 55.795565
43.947970 61.396069 44.978937
46.308714 48.569224 37.105215
60.471562 42.104399 55.151542
48.416495 47.385658 48.524208
45.170249 54.978857 59.092108
54.454873 47.039270 56.536402
50.414596 40.982345 60.815094
60.047592 56.662911 49.633490
60.973467 43.366887 50.539498
60.597132 47.186342 40.795696
49.464465 64.470949 50.960875
45.481225 57.657662 42.270008
51.521948 48.515990 38.802589
57.990611 47.021194 56.026435
54.181764 58.596588 55.727621
44.559269 45.306036 47.342777
61.275132 56.307820 42.890808
42.902974 49.414084 56.317710
48.169287 41.790886 59.427322
59.128178 60.604465 50.096090
51.159558 56.306645 51.549991
55.526821 56.212263 44.887530
59.068630 55.222467 41.109927
55.162771 44.942394 61.704386
42.333776 51.502361 50.023947
54.123773 37.374896 48.016368
56.659263 59.573684 40.740735
47.961833 53.619435 64.384851
40.949941 45.184657 53.183429
47.697658 60.170712 48.192081
55.391385 62.378444 54.000550
37.986250 51.243758 51.235622
55.895605 54.286619 49.096577
44.246494 61.011106 47.640315
40.885215 58.165047 51.238019
35.552858 48.856219 46.405229
37.971416 42.531468 52.836963
45.815557 50.400769 36.665535
47.549983 52.872430 49.459340
52.361281 47.897560 60.864793
37.326554 50.248040 45.087171
52.753973 61.310176 57.402085
56.917066 61.648733 49.297423
41.735879 56.218775 40.393989
63.418414 50.182913 56.465463
45.594286 54.797541 42.178712
45.833266 52.878957 48.181764
52.229536 48.976062 40.998602
51.151147 48.917252 47.720714
49.246022 52.817997 56.622336
47.525075 56.442182 51.510209
36.579349 55.339249 46.588113
40.903165 44.158679 46.631587
44.851447 54.137702 61.838022
41.832961 55.416198 40.316285
52.086382 58.807851 40.497141
58.174720 58.563277 54.864819
46.267938 61.512400 49.942477
59.917060 57.304868 44.480184
43.981380 44.669493 57.191061
48.275999 62.729020 52.628054
49.797189 45.644281 49.005145
62.765403 46.217730 46.274330
45.330815 45.421063 40.103500
45.986113 39.681537 46.915950
46.543146 38.327845 52.820399
56.078033 48.945006 52.462354
56.357628 47.550947 61.960328
50.840726 50.254413 43.053273
50.711413 55.851326 44.011488
61.244161 54.492877 46.045530
49.973899 49.835054 43.430341
48.577580 40.002364 60.811292
47.239304 57.279454 46.737123
40.618289 53.547684 58.071442
37.523291 52.745211 42.224104
56.350254 48.055664 45.568072
44.482237 53.563984 49.488523
52.768360 54.168295 54.967125
44.844382 46.993562 39.913621
42.122629 40.457821 54.006991
54.422359 48.712704 54.387154
36.675894 44.400067 46.847905
53.510206 46.236469 37.701630
49.548026 59.717000 56.015396
49.091502 44.509986 63.214813
46.592721 49.793926 52.552472
61.533851 44.682796 51.646152
59.472137 43.556152 53.612564
57.365383 48.214283 43.662658
37.006897 47.674284 57.014839
53.444880 42.314903 53.701953
48.464706 46.318464 42.850315
60.647686 57.336596 45.185498
54.315394 53.153323 57.837056
52.157746 43.393837 56.769204
43.978740 57.707521 50.697973
49.440456 45.948299 60.359038
47.968706 61.364783 54.691430
41.763567 39.403008 48.220738
51.549166 53.422722 63.789274
43.894136 38.371291 56.563109
57.525259 56.533859 42.890617
47.521505 57.414011 51.294380
49.942014 40.315931 39.096726
56.268973 40.575720 47.375496
57.594747 53.519880 60.252345
62.839535 57.541278 50.294230
52.891500 59.152868 40.634986
50.908632 45.164715 60.460694
52.886488 47.924664 49.846818
56.178782 38.316837 44.220296
50.287771 43.010956 41.797759
62.729812 49.027542 47.438887
49.710194 37.570446 54.421660
52.422039 36.827529 50.024163
35.922585 51.901211 54.134673
39.851836 57.399785 53.270616
50.078054 53.488119 52.041393
51.970710 38.579921 44.676102
44.875597 51.262791 53.215579
46.179552 53.028601 58.412381
47.240878 61.145990 49.490002
46.659731 48.620515 59.354798
46.692741 53.175013 39.730158
53.576322 51.791124 56.919768
56.863996 47.138313 52.268872
46.831978 40.875901 53.089313
49.597330 63.884450 45.116941
53.466623 56.185483 56.479729
53.176268 51.588252 46.596911
41.584586 60.710761 50.005911
44.720470 57.849355 55.051009
55.162574 38.535608 49.205924
54.166427 55.664579 62.684770
51.427196 53.143319 59.240481
53.835727 58.586814 44.050674
60.912110 52.773349 42.429390
48.332841 44.732966 46.319227
37.230569 45.963167 50.560168
44.514717 45.127492 53.909035
58.809068 46.659017 43.005977
59.240235 52.820795 42.928696
55.431215 49.500900 48.410769
52.211062 52.749003 40.147477
51.194746 53.202672 39.172337
57.557552 57.596935 57.972466
48.971563 57.352784 45.427013
46.435508 38.088344 49.790109
46.381854 60.705387 45.194235
60.959866 56.676768 45.367698
45.058569 45.109448 57.610630
47.848551 64.076982 45.961550
60.520413 52.402495 54.491020
52.544982 50.133583 37.488565
45.499653 45.977473 38.694130
44.036730 36.840974 53.418651
54.163583 64.192184 51.746924
38.643943 54.039319 44.365822
59.120314 53.188633 42.019055
52.957847 60.120504 42.262733
56.118957 61.202262 43.126407
48.600568 43.643342 47.314247
48.221096 48.028561 35.338181
51.904364 40.742381 49.660504
59.589763 49.570468 52.749388
62.139634 46.802914 47.661836
44.236853 48.407016 52.331083
57.559925 50.791959 47.943801
41.713102 59.527788 48.569760
35.253574 49.740077 49.614197
55.106760 43.266800 46.707380
50.060472 39.123349 46.916149
54.326349 47.046072 50.565763
51.559468 48.984562 62.206039
56.894235 51.034030 46.852464
45.021073 56.693224 60.041164
48.214868 45.373917 41.640585
44.225955 59.081404 55.623145
45.419139 52.169624 56.439960
43.866574 42.085024 52.543949
47.992041 42.111033 41.095812
58.354194 56.061242 51.504846
40.816838 45.778682 57.404893
39.639687 49.611376 46.083944
59.160868 39.713325 53.685967
43.194103 54.909483 59.647441
56.324509 46.435036 41.147171
36.227514 51.770721 53.851920
57.640507 40.068542 56.292177
52.652124 61.862512 54.350754
58.615325 57.112575 58.788282
38.517620 48.581943 50.039952
51.538548 47.549720 43.085667
55.665216 54.215046 40.470184
45.364763 43.835873 53.395602
62.094419 45.296326 42.551110
62.962518 52.341930 54.989801
45.351830 57.695818 61.804193
41.937713 60.185523 52.145719
44.839944 44.105700 50.743686
46.113407 54.423027 55.098213
45.187786 58.572828 54.487884
49.239423 44.216231 58.872122
40.920732 48.575686 54.503931
39.982886 52.314251 55.204979
45.349972 41.357941 55.590737
52.045377 60.610741 58.090426
58.908284 50.764592 56.486117
55.707879 49.620590 49.180305
52.497664 39.432349 40.971024
39.821201 56.269843 56.536092
44.388079 51.778573 62.995250
59.663288 60.720058 52.780495
49.002016 46.983567 47.874889
60.947696 46.826924 53.133209
63.279279 48.636648 51.388819
45.751684 48.111116 53.106926
58.716124 60.476330 55.197925
39.292279 51.132748 47.703740
48.369776 39.332403 55.675046
47.027979 57.048173 42.304004
59.469852 58.265507 57.216906
49.226496 60.236381 45.168514
48.474870 55.804884 45.744720
58.396642 57.090604 46.663784
44.953720 50.550842 48.859710
50.419752 55.076006 58.990699
53.211595 42.440628 61.126850
42.483327 54.956755 51.949497
47.209306 50.422697 58.995729
52.789478 46.666760 45.915344
54.753803 49.997195 54.058647
47.846226 44.479710 39.400210
43.957660 43.324094 40.469135
63.143022 57.022708 49.651532
49.005341 54.118411 38.587876
38.081173 45.139738 42.340279
48.114122 49.464703 41.939429
41.389988 57.197655 54.121928
40.342710 56.062681 55.573108
62.896035 49.936412 56.943829
64.133213 46.285272 49.047671
52.609276 39.562381 58.390490
48.937379 36.668919 43.665658
53.139125 59.848548 51.312633
47.411244 58.845537 49.543061
48.342710 57.932971 43.273134
52.811233 42.744524 42.141492
59.043085 57.787991 54.324851
56.000118 46.122757 48.965457
45.279069 44.603519 60.618628
63.951454 55.212352 48.312719
42.796422 44.595828 44.051135
38.575441 48.544245 47.826815
44.264276 38.757061 50.061287
60.609954 58.654230 44.736270
56.332599 47.093126 61.123071
45.349979 53.475705 41.411360
38.446692 56.252501 55.373501
50.902605 42.260273 52.166913
52.879118 42.800576 44.682621
48.629076 59.785761 49.646388
55.475818 55.466164 50.400676
42.135563 47.341790 59.902581
44.437394 48.156309 57.449399
42.855475 52.295557 44.999283
54.317311 56.655907 41.452326
53.551568 37.227003 46.786184
37.603823 42.283015 51.836062
57.919111 49.321573 61.714150
44.019454 47.252220 57.590200
44.922663 43.799719 50.529539
59.585649 49.033848 41.684154
43.736786 48.698489 48.167210
39.665432 55.990396 42.064777
47.126075 61.430594 49.264962
59.004504 44.688839 46.277291
42.726973 55.547176 49.480630
47.196300 49.901023 41.523534
38.796890 51.450043 41.577051
55.646765 53.903590 59.700023
40.544308 40.475567 46.212782
39.056141 49.609396 50.885697
57.087372 46.301715 46.115989
43.772367 48.496853 60.351509
42.545067 49.204785 47.852099
48.110530 46.541549 44.527391
51.866566 52.213900 47.087900
57.155768 51.064129 57.655311
39.194270 51.477855 47.238290
52.545129 41.351970 44.179269
55.009650 53.039418 37.275020
37.686745 49.859102 45.216063
44.928653 43.190185 56.541530
42.611441 52.781825 53.344411
44.331045 42.281350 45.575119
44.185508 41.306558 44.075913
46.511750 52.164124 56.151063
59.170441 46.940622 59.772295
48.279327 59.304236 47.910037
46.136077 57.300085 56.186037
52.423014 47.203568 49.786693
40.326701 50.018045 60.672314
42.673275 57.188378 52.562699
47.286362 51.001045 45.339189
48.243786 55.867713 59.131088
39.278789 57.971307 53.827137
45.693126 49.607615 37.784980
44.351731 60.274574 43.049929
48.439940 61.205298 50.127935
52.884410 54.214390 62.547463
38.137527 51.762546 45.144806
42.380037 57.806374 44.298948
48.372628 53.120903 56.596693
59.674826 50.350302 57.783156
48.181713 47.940384 39.454037
46.964664 38.520307 45.946389
52.048012 44.701712 41.862274
44.873079 45.922164 55.643881
55.102644 39.943402 49.381378
60.348371 41.834192 55.858133
59.215636 54.296037 44.854923
38.607834 48.348944 53.297069
41.511375 39.979455 54.108726
44.982527 41.354794 48.190960
42.036048 56.578924 43.749714
47.165546 56.083592 48.038487
37.766663 44.766365 51.760425
40.821308 52.143328 42.888154
44.099975 39.803350 46.780912
42.827589 42.444458 44.278370
56.195664 46.268467 57.016652
54.974224 48.251016 50.311576
57.755365 45.507206 59.133453
45.823041 57.571353 58.895344
53.993950 38.722044 43.114486
46.394888 48.253582 46.170254
47.596902 59.042858 43.651397
45.245611 42.721191 44.883930
61.704736 51.193111 49.133361
49.880775 63.202122 45.205006
55.380935 48.804403 36.603641
52.106445 54.155409 47.478296
43.900070 45.686033 55.173139
41.564654 47.832101 48.416698
58.537749 57.384451 42.954809
55.174521 49.904846 44.600586
49.301665 50.922604 62.472781
39.161827 45.672366 44.072183
47.359762 58.472923 60.840229
41.202776 44.896411 45.983502
57.835316 37.898135 52.208517
44.755465 39.698426 56.620212
57.238322 53.774550 55.763351
52.748124 43.197321 51.758540
43.772442 52.505146 53.621283
52.389399 41.418386 57.624564
41.111398 44.912558 49.037280
55.878017 54.016077 52.955818
51.323991 59.684383 42.831655
59.456117 55.787195 47.132602
57.676627 46.995901 45.547782
52.798493 45.459978 61.630233
53.041214 48.163216 37.404705
48.119114 52.688693 50.867506
42.769777 37.051518 50.090287
48.884377 60.586982 45.087647
55.182138 49.243207 46.990249
50.528500 50.701376 49.350212
39.506043 50.834684 46.358010
38.854671 52.048050 57.123064
51.147933 46.795215 52.457556
51.846932 53.697119 62.054076
45.988070 52.197693 62.828582
42.485158 41.179937 54.110537
48.611666 37.315000 49.181473
44.791369 37.629388 43.906663
41.944457 45.823073 57.989120
54.113200 47.632895 40.164813
43.231639 51.491141 38.583991
54.014265 58.979667 45.069414
51.384796 44.923321 53.762434
61.004427 43.761005 50.806873
43.976462 39.282347 56.992827
56.025956 59.312510 44.709926
58.157444 46.291699 46.715950
50.136183 58.514184 41.083779
57.074984 41.867040 60.422166
40.463913 52.899992 41.697906
39.106993 54.926195 45.624916
55.441347 55.105922 53.201904
52.419067 37.093230 43.847266
