19.641463 99.733721 25.667773
68.590682 68.029500 84.972502
39.886688 69.596451 62.594107
43.641995 91.595742 25.192959
22.427358 63.038826 19.026664
82.999481 33.967526 42.109948
68.231586 88.510169 68.996748
9.420522 33.806099 75.006292
90.775064 63.382712 59.615503
37.921956 47.805166 43.222755
5.517648 2.185289 61.740383
50.983878 24.489080 89.275096
20.659490 70.049883 78.836291
84.022698 83.952994 79.418176
45.780017 62.391156 85.771138
42.028938 67.085498 15.953633
56.469261 14.104590 66.029099
37.683095 22.784293 36.074325
70.141712 90.803342 1.128095
16.784795 70.573334 56.873486
31.918305 65.176325 86.718756
25.797867 48.567218 2.076734
94.599598 80.164373 50.509054
99.199799 22.021863 74.397055
76.950657 83.085581 68.509630
19.059060 9.133412 18.035721
85.831852 40.199510 54.616609
2.537300 49.142853 40.926927
53.456024 37.527344 7.544220
4.396032 94.979697 60.381866
64.339627 91.541880 55.086150
61.555284 52.303859 17.597446
31.151091 88.433991 44.386433
20.414954 82.804039 8.730489
63.953029 70.012448 30.376830
16.688479 44.829277 75.503230
88.669156 81.533690 10.952920
22.277658 61.698574 70.991011
0.873824 14.257373 9.401691
34.110924 68.080231 94.319416
8.952331 50.609134 37.246660
39.832156 6.804632 28.832089
25.245600 71.829864 64.185833
63.631045 51.925825 34.208519
24.379205 1.128380 14.792804
21.988154 97.556353 97.045166
76.766616 61.032602 66.880840
60.054905 64.683014 21.923691
97.670192 75.663852 23.424373
51.364794 78.921731 91.116011
38.384450 48.373028 30.988269
37.657935 22.770935 2.991171
41.633080 47.057859 77.989691
52.262156 32.639722 46.324283
79.613281 48.095095 55.518301
17.299894 0.763528 92.967665
26.796487 34.757501 11.484657
51.299797 73.709885 68.606709
85.560211 28.657009 31.466328
96.557354 45.659980 83.451372
61.150204 18.086480 95.743815
32.444279 64.179152 25.451565
57.566811 54.111456 26.103823
98.877088 14.068352 44.301254
3.137749 68.272258 46.210359
56.009256 69.850720 76.400874
96.582769 86.399612 32.380470
72.726473 7.596442 13.620686
45.961262 45.962454 50.575065
47.519701 64.137868 95.434545
17.268913 35.746246 7.426548
19.998319 98.730510 3.955672
21.367782 42.650432 29.266935
54.522320 99.044658 70.393328
40.586034 68.293674 87.225662
22.900281 71.692946 61.395033
73.382029 8.416015 73.294161
78.802578 68.723218 19.724053
16.134442 73.837666 64.770840
98.363548 45.474532 22.931647
76.972208 74.852529 52.270312
74.604916 31.059242 21.572033
12.609534 29.047791 65.456654
25.843016 88.343892 24.976312
68.444777 52.756469 21.154711
55.619703 95.473311 94.417753
29.159405 53.648855 15.085591
46.903565 32.149491 92.948314
63.268163 18.492743 99.233905
69.417547 13.467544 79.955169
55.755839 40.026126 19.631722
27.792770 16.725770 80.335500
27.297499 46.996187 96.791431
99.455721 79.126812 79.891063
94.484691 79.682291 45.095132
6.031091 20.836990 44.454927
26.541016 32.918264 5.893077
55.212879 35.157997 25.884031
61.037311 27.677720 47.626322
24.640217 68.051416 85.415293
8.171059 81.985031 85.169816
96.492779 82.783792 55.239083
7.025408 7.444875 19.670077
44.709972 95.543964 17.535365
53.879732 99.807088 1.377791
4.698224 26.991240 22.514824
49.860142 42.045200 58.364339
14.707742 68.584268 21.469371
45.199188 3.335013 79.786057
62.710701 20.877271 60.175155
43.700741 82.626775 98.372046
12.452045 49.010661 25.802299
74.968217 3.446333 54.457507
85.709524 38.928634 83.789694
14.689042 91.832567 79.145244
39.109848 13.062777 52.042269
67.042628 12.892654 93.317433
76.270174 95.163134 29.924337
43.343026 24.010925 27.378349
14.528670 12.523598 67.078444
15.694333 13.343512 53.458573
70.399808 77.803846 58.023904
20.156142 57.323011 62.579734
25.809743 14.448530 92.565070
9.594716 27.718141 23.144830
89.198432 50.195934 95.657947
82.821923 75.487114 17.677949
34.435376 82.027038 98.353078
87.792079 94.841217 64.184978
48.281726 51.472153 45.849180
15.487037 30.576208 9.037409
8.856016 31.183449 66.612585
61.371007 55.946306 74.893228
42.269160 44.210188 51.801841
6.659054 58.169212 75.023937
26.364238 85.481388 26.621636
51.321350 87.447433 73.812857
57.612743 62.273142 10.888654
69.932134 61.192578 8.453425
12.430884 97.100549 17.811150
89.577303 27.583388 39.612146
55.548929 62.586828 49.777909
34.843768 49.868738 70.068736
39.648308 54.524593 37.917325
32.992677 29.881860 22.395399
76.077006 98.389648 2.899382
19.606279 96.424981 34.177520
38.897453 66.296778 35.268519
49.270046 90.071954 56.478381
66.688038 21.708377 26.145235
89.155758 91.758237 80.697915
12.206530 81.853249 1.922773
59.655445 67.526235 42.640263
47.921346 74.184931 89.487665
18.933780 13.848470 62.999207
23.075960 19.422471 20.349133
19.683857 47.711812 96.438994
82.806999 54.333559 8.116525
67.293146 45.114246 77.835993
49.395735 66.827374 20.004953
83.321543 77.942406 37.401454
96.364415 16.039478 2.001326
76.313745 60.056720 11.092164
15.950665 13.087882 16.685315
46.140731 5.096230 51.938650
60.537338 72.736817 94.603320
8.247713 3.515787 13.913862
33.731470 52.536171 0.428589
69.236967 95.688242 24.977892
0.879704 75.324534 77.005032
4.350939 61.732229 24.283973
63.287466 72.637854 22.274321
26.075958 61.157434 58.226262
88.616673 51.036844 79.976738
73.200708 66.570000 19.177298
27.636044 56.676948 6.594366
4.504939 4.981701 92.130769
68.887856 83.676151 96.341683
70.096914 51.532129 47.901791
74.602720 86.789725 82.961613
49.294532 77.350904 47.658645
38.438560 29.767156 5.454565
20.116254 73.000705 17.171082
90.117706 7.858264 5.112688
48.108248 22.266395 10.295294
5.986795 52.729653 25.946421
55.576642 14.829779 2.442403
2.725922 11.267285 79.604242
44.851401 62.386044 87.498944
21.260487 87.134860 74.563547
72.901811 87.073674 12.587769
54.050113 48.353332 66.399954
23.798887 12.732626 97.344403
46.568152 23.202029 12.865613
59.359828 14.776227 18.304264
95.215274 2.916566 18.683022
67.121901 21.689402 18.194000
55.650025 69.595642 43.063275
78.128786 81.521006 62.308427
57.781903 81.630511 1.502994
51.063483 12.873257 22.155676
94.899924 0.371024 30.701402
15.436101 57.041692 84.425992
39.088879 83.718541 44.023645
90.904395 84.694496 17.881950
88.506403 19.256408 49.039475
19.600391 38.646247 98.560429
76.514019 55.407377 93.547853
35.970352 17.320586 82.895261
1.217536 80.459540 2.185717
28.438043 35.549967 31.852913
24.343204 10.817846 0.318007
77.471185 45.691575 16.194408
8.217703 27.843780 35.437412
46.141843 10.105351 97.992334
26.874631 44.129589 70.901543
31.019030 8.249696 37.654046
55.287272 84.175392 36.792608
88.952096 54.607535 71.748664
3.016589 89.572732 21.344708
32.586866 52.365528 95.982988
34.567511 22.050174 96.072719
80.846434 66.342022 40.963635
42.045498 95.067044 6.895850
75.750021 60.115048 96.843524
55.840531 28.054003 77.991878
98.562858 90.745366 29.473922
34.635029 75.482019 59.819049
1.161276 14.186165 8.549205
17.872872 30.490976 96.719955
67.646933 5.476129 60.736513
43.666430 75.403964 88.392806
6.521323 97.993252 5.790526
73.237335 90.313198 75.171917
15.078940 20.799273 4.117907
13.107192 6.101649 5.363876
56.211187 7.670018 42.506164
70.966298 1.513476 63.887760
75.718387 53.667009 47.559175
73.084086 52.973262 50.928304
80.181638 83.755476 36.841824
41.547909 80.076023 54.486809
68.681342 7.517504 9.536874
53.180144 81.922754 31.654209
96.063226 76.032533 78.171166
83.403394 25.448820 33.032560
11.843179 38.035582 3.583216
75.148749 80.255712 21.362248
48.989903 67.199278 74.254053
96.943832 20.065330 24.672391
85.387913 9.721322 78.588226
13.334072 46.447071 59.224315
76.787758 11.452967 82.405809
85.055754 79.349947 93.731125
87.222515 76.797872 57.933582
80.862458 97.533287 63.731925
24.260512 24.784587 79.598724
98.944996 21.031183 97.008470
26.828915 41.280293 90.815328
96.181447 56.695441 95.009047
84.241908 86.639553 86.824834
38.624881 3.066607 16.465227
7.446837 24.239820 5.529390
27.694074 58.896007 14.105987
31.574281 22.413601 9.510221
67.609859 89.302634 71.599293
68.421427 98.301825 73.127510
4.710261 21.824645 63.746212
63.904434 83.259842 15.883481
98.121681 51.629098 92.041245
52.934302 18.691480 35.101883
22.116632 26.422551 89.035784
37.739459 18.267095 36.454234
61.725765 20.088612 5.098105
87.212003 23.922032 93.636286
4.714405 65.083821 66.524253
15.602819 66.523205 38.763758
38.176897 87.747951 95.241456
17.011393 68.409900 15.471016
3.500051 14.953085 63.465585
72.643738 50.703666 95.166565
76.417287 16.161822 20.793761
59.608196 33.330060 0.089308
2.429429 40.809898 52.361534
65.331875 76.313982 96.875887
83.886531 35.594037 53.469384
21.592001 96.875313 53.544293
24.967025 72.404376 48.789032
99.672507 7.471059 33.547218
94.185189 46.119993 31.179452
60.487221 66.449355 9.280749
25.938736 30.897531 24.581053
38.287762 33.470850 73.142165
59.893450 42.919431 20.000402
42.063944 18.048403 95.214586
17.377363 85.867737 61.558076
81.081784 88.856137 80.398495
58.929490 26.699386 66.000586
0.484355 37.746630 85.796369
58.053619 26.062370 89.218083
1.526906 88.292508 75.945424
14.637625 6.290432 95.123538
6.703318 97.376162 42.062904
35.350432 65.004401 49.604674
39.004780 64.016174 35.006653
3.435370 82.463939 51.463935
68.668450 57.517389 61.419235
21.893973 93.466063 44.772272
92.009678 80.691802 72.008184
46.011786 2.264364 31.521215
66.485759 33.065334 9.912737
51.775881 15.447955 30.622051
50.191303 11.627983 11.252854
21.008882 59.180568 93.319789
23.903665 71.982371 18.937850
63.551498 13.771938 84.538108
74.250899 68.072644 1.466178
83.640985 15.085052 53.348902
77.666164 63.167052 81.902473
70.885214 75.607613 29.876882
37.910581 50.145293 58.616075
69.167101 55.557473 71.045723
15.075030 39.464661 91.330544
21.695709 14.366087 74.480784
19.442915 45.760952 71.183170
48.485009 90.151097 87.814845
50.295057 96.084936 29.177387
23.389194 67.024492 57.278208
25.110691 37.113146 23.302701
23.697715 36.757092 92.421969
83.489787 51.241819 47.776951
3.147852 46.229617 62.377685
77.859021 35.597969 91.938876
84.019278 8.223344 90.294805
22.282928 92.331803 63.067982
41.192025 43.645112 56.278865
84.387287 83.692252 41.490306
84.902724 47.195411 41.755093
24.325343 82.793002 62.006354
43.111781 66.237665 86.101199
19.782384 39.244207 38.030039
7.602186 33.406825 76.179300
25.334014 81.091504 95.525356
22.397046 40.966629 13.133404
69.214408 48.219998 58.871128
77.869334 77.617911 51.597564
88.232082 93.193128 63.071331
3.840640 77.596571 89.191721
55.663864 70.035786 35.604424
50.210441 79.810638 87.596116
11.521627 1.718593 37.359188
39.091762 77.333038 0.859723
76.400325 53.632644 69.782539
50.925859 79.072490 43.706939
34.584086 63.651905 44.444496
30.342644 91.354640 72.327361
19.687744 74.010597 25.239681
43.127331 21.742204 11.329785
39.906366 55.508140 30.212170
7.500300 24.963731 24.565738
59.075221 28.214868 53.377587
47.033963 26.635779 74.121718
66.759122 68.027296 43.358119
31.659635 59.074099 95.909034
43.396018 66.528337 44.234967
93.260166 26.471669 45.839995
49.365227 72.864798 72.130888
73.944190 73.294025 46.975827
15.556450 87.043811 32.483320
11.031807 12.878197 49.475878
42.593397 66.352664 61.186553
10.741196 29.674876 89.625480
76.668264 87.054120 2.198762
91.208870 86.107802 45.227712
67.358804 27.199361 65.858821
79.877126 48.355587 2.827350
41.634538 72.498025 70.375613
48.630348 98.570908 11.704587
15.828819 25.832735 80.354492
76.281829 77.276184 87.962285
44.291081 31.857297 60.038210
40.987173 52.384061 14.021732
39.638251 47.263404 8.744043
99.449526 3.778593 91.951561
8.019817 85.929764 54.824178
19.633487 23.132839 35.160836
79.402272 14.714622 24.223142
69.267793 61.399132 42.082457
6.053623 55.849879 22.922126
61.210033 27.451591 98.033096
59.059397 57.130555 83.676838
99.316478 77.917199 59.389550
86.352479 18.120906 76.422937
67.989887 56.325108 86.675616
70.965714 71.673346 90.974146
69.941206 25.542391 18.362522
51.319683 23.491216 69.963583
84.270958 29.181601 91.347441
74.690363 98.814091 19.870431
46.154707 64.030792 76.291755
91.193269 89.127003 23.612192
42.247112 71.830489 13.231424
95.936524 74.695277 82.884188
90.744439 17.795187 42.213099
65.166978 82.246112 73.800441
12.153110 64.567196 29.405369
40.649781 99.422987 15.705581
10.438053 40.914413 86.412805
16.220827 7.995282 41.884893
63.229807 15.469251 80.458885
84.591589 52.259593 3.046386
51.610228 21.418225 44.609701
75.973723 5.441886 0.015203
13.344908 4.536932 26.042008
40.426806 77.970848 3.032723
35.099015 92.944402 57.638017
82.676344 48.351410 9.724022
18.693911 75.808233 86.410753
46.754181 49.245662 45.012229
1.836311 9.550984 99.188808
4.201363 34.896906 69.068624
42.483094 98.266381 3.273869
87.455896 13.474427 20.482209
52.830378 87.145467 41.408107
29.357388 40.167201 9.434333
83.823432 91.521510 67.577467
44.466963 61.415080 55.186681
5.155515 39.442133 65.682868
84.779908 35.897300 81.927211
75.691596 92.931014 98.943087
4.173226 43.747070 77.356019
82.316656 8.285422 60.659060
89.845257 22.705907 34.735907
39.484795 39.453775 56.170627
6.080643 77.918977 12.287708
81.331597 1.709436 78.702598
35.526712 65.585829 17.917202
53.700962 29.911136 0.392467
72.514101 13.117589 93.970422
54.372450 0.167432 94.492299
13.278370 83.394118 32.927784
56.806203 83.572525 5.015816
68.005801 14.858236 71.639593
16.070401 2.194367 15.543813
62.573779 98.572679 97.012199
74.569126 82.458046 87.396453
52.835376 22.860249 66.109574
14.159285 83.236066 41.209103
26.649178 84.345800 11.119252
97.482641 95.041182 60.878808
71.212729 3.714943 43.708303
88.461662 1.152215 29.061993
35.384066 67.507964 70.483898
6.518962 21.751529 82.549730
19.181775 28.653383 16.224432
75.431639 2.710646 30.191303
53.231514 0.602043 95.398611
86.928915 64.731623 43.913084
15.530691 55.363935 23.920797
63.801736 14.558609 71.711925
32.290516 50.198172 16.182561
25.627683 45.021176 45.818129
99.977779 33.542145 8.437783
52.421862 32.182574 87.777666
21.029817 85.566308 66.357730
18.798946 40.524716 49.243252
52.179906 39.709491 58.462781
71.674132 50.618380 60.243311
85.959533 49.775181 41.629923
24.775089 13.136490 29.225707
40.616364 76.425769 21.742879
70.214607 7.903390 15.839123
32.632855 46.982196 18.092841
11.203094 56.582546 41.198793
41.589233 30.794669 37.124753
18.407460 27.058384 54.227292
52.229185 90.592741 83.253992
0.710143 22.976391 88.769519
31.475323 47.770565 67.498493
54.335715 0.486797 20.656347
10.043967 16.764526 14.736869
62.277882 40.656463 6.655128
8.229043 95.035640 15.476197
25.384011 57.429493 18.710584
19.752939 7.258766 98.082115
60.605053 52.974397 88.867058
59.442516 26.308326 47.225830
47.757868 39.807959 75.363049
10.968280 15.921477 37.219627
7.117300 98.739554 49.579440
5.010617 60.789619 78.110458
40.771625 48.053221 70.060000
23.381779 59.766389 63.094533
80.464366 89.107164 94.088814
12.632639 81.626758 67.543078
37.072813 92.281117 86.011702
77.435885 5.748432 17.700683
91.832919 98.223642 27.730399
27.738700 61.030490 7.618169
59.531547 96.868909 29.695287
74.274504 52.490074 28.731133
41.247875 55.108194 76.159084
54.079499 92.514029 11.694871
95.769768 55.065141 39.181525
7.605106 29.624822 43.793452
93.706671 75.642533 5.904494
32.789345 49.143232 85.008517
77.642749 21.613772 5.045956
13.237540 50.328968 8.987761
24.975776 82.134770 40.195310
99.614649 75.598275 26.491827
0.757034 52.720748 70.585578
46.968305 90.650466 76.795093
52.026912 1.892391 33.824691
49.440814 25.023434 83.765192
42.447116 20.380050 77.909940
60.828378 19.707845 53.274605
69.452124 44.843333 30.238205
68.966868 68.726609 1.693743
23.412531 64.631606 22.414478
96.265485 16.279094 74.821606
99.832263 34.657847 60.312738
10.571197 62.182349 98.752278
97.285917 41.177819 82.062046
82.659970 32.726662 82.274764
16.240458 97.887920 86.417007
51.059325 38.532206 94.594863
7.112613 49.838957 48.694690
38.132470 11.262758 25.138132
98.311824 80.795139 83.828316
50.953160 66.182543 50.500593
67.735940 86.346842 24.259470
95.089327 91.361182 41.929129
97.681422 88.252415 4.007739
4.211417 70.728458 78.367197
24.868692 49.873665 53.924842
44.559576 6.912243 21.889610
81.451074 7.308688 62.214065
63.415820 95.649013 98.745124
94.504253 54.132144 4.177572
27.730061 47.549554 3.911984
3.709733 32.402306 38.734472
58.084437 93.285765 39.117693
4.809058 54.004362 35.796245
90.110358 43.149807 32.179742
72.388026 49.325295 55.509908
15.206742 37.519271 4.642406
75.487880 24.558166 12.051576
58.951203 57.942965 31.579757
96.235118 63.552131 92.639389
30.059568 55.180306 41.352073
41.328335 4.776732 21.963639
86.932545 84.985530 10.509801
1.814805 10.204577 63.880140
23.982291 76.262421 0.582914
71.577259 88.639077 4.480647
86.739494 91.786881 53.584015
28.452872 56.281415 31.058668
93.320992 54.363175 79.870443
60.997021 28.840725 50.012973
87.989133 38.287295 34.133184
95.643047 33.406097 85.950108
17.828072 79.172496 61.530165
12.019658 6.394517 29.830729
65.745601 36.011373 27.115236
58.186403 95.255478 12.185273
64.458131 91.240215 54.110046
96.418628 59.789458 67.260204
79.128003 19.972358 56.019211
61.426343 12.014767 45.551180
77.067837 4.070623 41.349201
14.571764 17.574860 51.257451
2.948182 42.495672 2.570516
92.556010 88.295397 21.163823
6.580437 25.063566 2.839191
73.478880 57.389443 54.383956
85.197222 80.931246 40.888158
61.033689 44.180793 62.400970
15.152485 30.008024 25.188359
16.746701 41.383809 72.649940
39.605667 98.263564 30.209068
94.812978 19.355369 32.077459
16.408147 23.791015 15.711157
62.482731 20.061515 8.513215
26.642073 67.840007 42.863130
15.615808 6.345019 72.935471
70.410966 46.152471 52.774899
24.049286 48.533683 72.860661
77.153262 34.049487 67.885056
48.648442 73.933581 69.078065
75.035670 16.488338 32.212207
26.498374 44.706885 46.491246
66.730720 56.960713 57.987487
63.298484 27.288971 22.613162
21.518855 77.944824 9.726171
31.609271 28.027297 59.192575
92.419158 87.859465 10.538732
54.021023 3.719739 79.240617
37.471821 21.486479 48.410192
43.510332 94.312835 3.318671
94.998415 23.437124 14.503216
74.182381 52.257693 89.564741
54.263710 50.546761 20.616188
94.977379 66.449022 60.156872
79.005575 10.127099 86.641345
50.048271 80.221306 71.263082
45.125991 76.970982 72.069114
0.372188 70.924744 50.878870
83.947086 80.964446 17.064851
2.175867 19.632543 74.112527
87.135139 70.057402 82.058770
58.724088 50.652068 97.036402
8.059016 42.135427 27.805723
12.205097 60.557700 26.325038
46.296455 13.658861 38.998651
20.025484 89.693708 52.239616
79.954359 48.572633 4.238431
69.455356 4.782343 39.504043
54.693935 77.982832 89.859977
20.481378 66.357215 47.022872
76.751571 93.984375 53.296711
28.677101 79.850920 52.673588
88.227840 56.607314 93.712295
1.753662 73.895883 34.653796
66.862037 94.234677 65.391118
74.498538 15.805045 17.051805
57.342639 43.060447 11.115054
72.833535 69.895661 9.157578
4.865679 37.881332 63.293419
89.356752 43.450557 8.410299
84.046605 12.489986 63.739129
41.345339 90.957013 70.491091
0.014260 37.276194 18.030908
28.353150 39.895576 54.138510
79.838168 8.642824 44.110337
85.071822 43.218024 51.929501
77.860596 71.289442 50.999774
96.709307 3.621355 5.451026
42.736249 15.784932 21.650835
15.008253 69.236895 42.126851
83.417473 25.038429 62.342640
21.344183 1.448418 68.891838
14.551993 69.381066 69.067143
66.814401 59.195977 88.492227
7.563666 93.181900 6.596935
49.532336 92.323298 26.892928
83.790456 59.318914 86.118574
4.856737 55.594135 18.865107
1.806855 68.895434 74.968400
73.629618 72.697532 79.994183
46.958976 34.757591 77.096312
66.646058 20.000637 43.529319
18.217266 77.890338 24.713095
62.269561 73.536737 99.160402
43.314255 87.246051 66.435393
0.844838 39.127909 39.411811
11.962515 43.708996 11.645961
83.538449 36.189721 18.312173
60.182290 85.758212 93.492756
89.428572 88.205261 34.805149
50.542144 37.130880 92.226163
9.282618 55.431967 24.690578
85.037425 33.921833 86.368422
92.804291 17.196765 75.425269
34.997826 40.327617 27.438128
61.666666 34.316713 74.061584
77.849203 39.513228 0.474403
6.608132 27.381222 95.387318
39.380933 74.423528 93.607792
34.167876 56.128995 85.232064
61.479788 11.222061 76.957692
90.409255 76.877581 75.253878
75.569632 61.253888 24.780993
91.083875 12.890729 82.729575
35.937429 67.382009 80.509711
79.858903 16.114261 61.091808
21.456265 11.210428 51.356131
98.752705 98.166394 57.340118
77.217416 24.967797 22.436219
70.652314 78.599954 74.183712
10.450755 35.627255 4.418017
78.616226 31.174636 42.973481
57.888834 0.055251 35.412021
72.728311 28.606528 57.047743
97.717137 11.815629 26.824096
68.396652 59.837752 97.800338
3.460266 87.799414 48.854505
22.689900 50.336427 41.219620
17.933477 21.939574 28.814158
55.219885 8.309936 8.884544
33.174616 70.729089 97.830511
1.200328 97.234064 68.604152
90.098585 53.633836 46.293930
78.515969 55.111088 89.736550
89.306322 53.045548 57.376464
45.627537 68.940620 68.235611
65.059320 6.234991 96.358273
33.560225 24.621659 21.104942
6.928360 45.703935 4.156663
16.090451 0.527517 17.468130
99.524549 54.145373 6.714859
56.414675 60.079130 54.772685
33.598799 65.724123 14.260919
21.956294 99.472061 41.558784
14.779185 21.702541 72.413210
11.625018 35.397933 32.839652
22.798113 47.683798 11.012794
45.656714 3.262034 97.034192
60.487382 7.507016 19.072503
73.644960 73.167163 36.498340
14.843726 53.592728 27.639726
9.680857 34.599854 75.101258
35.414006 4.078020 12.039729
59.634605 52.215281 67.486271
57.175031 49.722876 47.512016
96.153772 86.229020 38.287852
65.347129 2.043280 2.095078
31.857218 75.476700 92.545857
68.297587 70.638946 3.211837
93.015933 8.679343 94.690816
14.170630 3.338452 56.360995
11.364833 2.881515 66.782743
73.825763 29.294173 53.350822
58.604517 16.084747 44.006327
63.696893 88.569245 41.886196
69.933347 50.168074 70.708517
78.898515 53.055147 6.110297
87.540404 60.099377 60.064284
50.946500 17.397119 48.617434
53.682350 38.376546 14.910297
76.223691 45.658947 70.066190
4.698001 50.437829 7.377941
73.353826 58.096114 45.139111
97.284228 32.601660 42.288963
73.753006 52.505130 65.852113
97.627990 69.567685 15.070871
20.934717 86.985641 4.797408
50.917658 90.595554 77.622781
11.566709 74.046502 38.206845
90.128481 57.279559 54.877278
0.871139 24.965615 41.275428
72.391817 52.004967 85.253894
3.435026 32.288919 59.758959
65.875600 50.240924 39.885255
7.155593 69.624243 90.372625
80.883804 70.123000 63.416089
77.204072 77.673167 0.694044
35.784843 86.805363 85.078357
70.995542 30.907046 79.791242
23.155474 22.409905 53.573358
57.134098 35.132819 60.377520
70.911221 18.021785 28.861521
69.983812 92.725117 88.444208
12.964716 56.972535 80.017554
23.732655 64.319069 42.763797
66.273136 3.210628 31.295299
30.732760 41.867319 11.453799
43.661895 54.149825 2.665889
30.091508 17.729120 97.216267
13.021621 62.741544 40.185303
28.733127 85.407564 66.408718
62.030197 9.365758 25.896930
27.649224 43.437975 92.146811
40.365270 32.802101 7.093686
38.495788 5.235757 36.520446
96.778439 55.606075 20.887052
29.921982 57.109998 1.928544
89.957117 57.813811 49.228396
71.623384 20.026111 2.164342
61.522182 16.000241 1.223996
92.891673 78.841879 11.420109
89.635087 6.757392 80.298977
41.447157 51.818105 66.832862
9.876156 90.775647 14.364087
94.158422 9.148284 17.200837
5.755570 39.778494 59.086613
62.507468 82.851896 52.837983
51.011162 32.614592 65.110551
90.852892 35.530030 35.635471
34.332456 22.741326 56.671058
10.557512 83.479712 13.775277
17.392989 6.857424 38.134717
75.764530 91.009413 43.428078
23.513653 72.565464 68.814385
68.164475 44.342336 56.529826
6.196689 25.001267 92.694511
4.177972 30.159999 22.664431
13.023893 92.435179 12.589606
48.937133 83.950949 0.387201
10.852768 34.189420 14.751500
18.265960 59.115581 17.063121
63.884723 91.551851 22.942870
21.228500 1.139359 1.466639
39.662656 48.904208 18.281079
32.298797 14.030995 68.124715
39.293925 73.433411 55.031306
37.729914 62.636668 0.716910
69.036445 37.104847 51.357632
52.340978 55.841236 70.238651
11.064613 48.897776 8.315301
23.415327 18.926451 59.870934
60.609749 83.089943 52.183717
74.467852 88.907798 13.353641
72.096934 32.793610 27.806375
96.298264 20.645676 91.455304
82.371647 87.863245 58.598347
58.470581 40.258208 40.091939
85.066720 38.775516 48.669688
99.639285 35.431386 82.259168
27.719773 2.507363 59.342786
47.934598 78.667262 0.415257
7.056039 85.967891 48.083099
50.637343 22.510695 92.592111
91.442059 51.669382 21.782355
98.279144 89.245641 52.141101
62.639854 43.966780 20.605778
68.145084 66.913414 54.732609
81.444597 45.183660 86.091672
21.701835 96.180545 20.508027
16.011912 60.339751 9.307993
16.793120 72.903448 30.815153
80.012130 15.555284 38.530145
38.628795 48.039666 41.039220
38.678572 32.843758 1.515064
61.659039 47.349137 37.328265
21.141478 89.139008 23.789382
92.092449 21.726398 97.142601
41.984914 53.271740 29.881051
93.918089 28.257085 73.021182
2.049083 55.871874 74.157558
47.087326 64.331712 76.805688
50.023800 21.809199 39.677201
73.077901 27.109194 63.203463
14.829199 93.029323 60.298313
46.827059 81.152304 79.717105
9.732304 30.706347 45.857727
34.053996 31.730072 35.219030
14.204933 11.941734 26.031080
7.008173 51.021999 15.313627
6.756716 83.714579 58.750951
89.836003 98.339277 59.353136
79.597732 15.954198 69.836870
54.955420 67.639287 10.472420
93.581512 41.748735 77.579929
99.061201 87.331200 31.170548
40.197621 64.865411 53.802316
41.030046 65.336970 90.952837
30.949591 12.833834 67.574956
58.959500 90.558803 74.265924
39.710276 63.332935 86.236704
34.747316 1.382655 62.634049
2.592539 93.747990 16.819885
37.426357 94.628412 7.993059
0.434253 10.363656 98.603847
97.172876 38.459911 74.288563
73.593345 9.981621 23.511992
88.898234 16.569681 52.085536
24.415244 55.761456 19.653070
21.574825 4.679906 99.017139
11.309523 41.561882 41.755798
30.362624 79.399029 33.769191
62.545029 54.300038 86.402888
81.948263 21.794732 75.011179
79.256846 91.918566 96.321760
73.696900 44.993117 29.297067
86.466293 91.555449 9.756118
55.432272 12.919428 25.157972
38.319613 31.116422 71.599894
7.896624 61.377354 58.141453
78.719498 9.667849 33.260463
69.710342 71.168711 44.962579
46.176943 96.495931 32.622799
15.011470 95.284206 80.960814
23.706293 85.725693 25.230142
82.744748 62.856273 48.258022
92.807291 80.936793 12.992507
70.556896 78.950195 54.112762
27.606838 23.447297 97.414597
43.679346 51.882501 59.816573
10.063140 8.129540 19.813691
6.532907 89.847229 14.802427
22.656917 53.731036 89.620423
4.903122 21.597446 71.735042
51.917981 59.451836 1.695380
86.680523 57.874073 83.436784
96.374488 73.216149 3.101049
71.152947 56.347067 10.353959
27.042706 16.884096 92.484139
79.528333 70.085390 76.332064
60.124606 85.526659 22.860815
25.050457 59.174966 81.013540
83.578846 97.625313 76.228487
23.274295 23.065055 44.558874
65.015077 51.299202 6.747296
48.190081 81.709868 24.031481
63.503262 26.971952 55.566901
70.097889 20.722225 73.954713
67.651849 31.275996 89.497469
78.051415 52.113278 8.268459
44.062152 32.985053 26.244541
64.357356 92.173016 14.655426
74.163724 62.171488 66.703226
84.518557 37.545386 57.955436
27.682361 28.421162 51.328246
0.730015 24.811529 15.162878
11.986793 38.462868 10.436181
15.428928 66.871566 65.134212
94.501823 92.027324 87.394035
69.095436 26.658936 17.815774
94.941782 95.962899 50.443453
54.841368 0.537288 14.858560
54.599430 18.179312 47.872934
79.491580 80.077796 86.165831
23.571207 43.189728 62.684542
58.108607 99.907318 27.628142
7.133945 38.786201 51.801358
38.723922 31.936417 25.725942
42.748436 68.920211 14.886567
86.553392 64.112224 10.737050
2.351959 5.135708 9.036840
64.353908 94.085651 13.330344
28.433235 86.585076 50.567342
42.713269 47.323113 10.112042
21.958960 96.201672 64.342481
28.628523 94.697765 39.749527
14.086396 96.531646 66.593156
75.281547 2.251183 28.314543
94.542767 15.552550 87.347770
77.046796 37.851752 88.672303
92.270692 86.686681 40.748010
58.713505 30.612900 12.995318
90.211191 98.115644 5.858609
68.773753 94.924865 60.791772
4.709569 1.491382 50.410240
93.994501 27.886560 35.032624
79.599409 80.166170 94.363903
83.867189 59.392106 93.875460
61.441807 60.157917 1.550254
45.545721 4.295118 89.876956
1.047061 30.700190 99.506662
79.506503 75.766905 71.288073
5.124052 28.819966 79.845340
89.555194 35.005596 25.941624
23.589533 54.806389 29.148684
2.133679 39.074989 55.373350
63.424306 34.295471 31.389204
28.387675 62.332538 28.362535
91.685282 28.168738 79.093598
31.973105 63.474064 69.901573
17.437335 37.996604 12.758201
51.065564 90.942062 59.623584
70.166013 28.305384 46.822556
74.077877 13.130148 12.170840
22.443460 23.679956 96.239793
15.860843 10.515481 13.768251
20.291104 36.871961 19.715341
8.780018 13.661825 78.966802
52.007555 74.588110 17.669941
30.517268 98.230545 8.566818
43.867038 29.577062 0.733447
55.245187 55.000530 32.046063
47.225856 39.194754 46.420570
84.804857 71.397331 28.024462
23.954100 72.521765 22.451480
90.758586 83.281649 25.251905
80.150025 19.134752 2.486101
96.112061 76.135066 48.902342
84.320942 7.582134 73.968244
95.632573 81.859069 43.167571
34.631093 89.241591 29.150705
93.744818 31.984950 12.501481
23.588987 51.948329 13.110604
37.995716 90.585565 9.388764
61.454422 40.376463 64.745485
48.960809 87.670504 40.249826
50.842851 13.013705 49.030659
11.473085 58.312987 42.739376
78.337100 41.847698 63.059542
5.899237 71.001846 95.743378
44.777873 0.984906 60.364666
14.517727 46.796847 3.245565
44.281164 87.448586 13.538676
49.832572 25.387207 26.103064
64.330309 74.827722 87.328536
27.824620 7.077624 44.228219
58.459127 73.958059 75.607169
86.361722 3.116426 98.099806
96.681567 3.554706 31.329553
76.554262 47.851038 0.464173
35.471579 57.893894 87.958012
82.925152 94.631941 46.792819
79.827381 10.073559 51.845787
91.658076 83.884761 65.560985
14.920332 18.208126 67.865228
32.556782 32.944795 84.762279
2.046713 39.251787 23.822049
2.710028 21.657313 18.424749
50.447424 43.519173 47.169953
87.791129 49.442837 63.900470
64.748328 51.687440 30.477428
90.315860 43.817552 57.112798
55.914432 82.763804 53.462083
45.690288 46.006102 77.994859
32.997511 93.485114 84.660396
13.834760 31.723902 90.561987
27.837135 31.765826 21.745599
5.439405 47.845613 75.485302
65.999741 2.762497 52.338291
33.028914 64.178869 40.515982
98.053009 82.845017 70.037091
51.566706 59.111288 44.213554
79.465717 90.823414 99.909511
59.883030 68.188543 39.986251
0.847320 70.323677 93.403544
85.962455 87.862077 40.212595
71.355153 63.842998 54.093481
15.161982 57.544206 29.859092
70.358917 94.485243 72.765780
25.952891 46.524784 56.486572
72.615283 14.784751 52.559252
86.013649 2.758805 72.758037
88.043650 79.576371 93.183912
78.271049 51.802317 47.693429
3.183968 1.859937 63.946889
27.540251 30.709536 80.706566
11.127139 28.383463 68.503857
3.056623 51.978922 8.546092
76.165678 63.458245 60.855195
22.128506 72.469870 30.167915
57.081479 9.202975 9.608652
19.399023 21.600506 12.643242
11.824845 87.903100 55.463340
62.217703 28.782176 5.548737
96.827373 5.402814 82.262654
66.508643 40.752101 74.659730
76.473238 87.829176 54.492531
21.370721 57.257878 9.931509
37.622899 61.036654 25.188712
86.508275 97.605185 7.591007
20.589268 47.301160 3.794143
9.292743 90.064012 4.552984
24.748425 42.363271 2.045922
81.059380 83.000777 39.467024
20.178395 89.235804 67.855609
52.386178 39.239781 53.927685
24.951154 44.960008 68.589772
41.135886 68.495457 73.872557
75.371191 56.917793 18.438798
70.055969 81.928106 9.428884
89.596597 94.130069 66.823594
11.106488 65.369080 35.606841
30.364557 3.676401 72.483409
56.667993 45.079310 38.868841
41.185222 45.309465 47.748861
9.768060 38.032101 6.403669
77.593090 52.223945 79.951519
42.932000 15.309837 29.957555
23.386065 43.990394 78.891085
11.663305 40.010017 9.179118
39.145602 58.252244 6.897478
6.664184 73.051011 40.749776
35.138227 68.631973 8.476335
85.971496 77.542601 38.964476
46.870744 39.771555 78.523021
2.899394 67.138865 30.254775
77.954712 98.390884 27.897823
44.585174 54.759081 55.104907
15.657067 58.324617 72.391251
94.402848 72.538011 60.330695
23.325077 9.792016 63.433463
62.518272 83.935885 44.610208
17.204340 22.472676 47.639890
31.205266 18.026714 10.785127
41.235092 33.751829 96.527547
85.641276 18.349141 75.335335
48.019784 92.609864 60.820520
20.399343 19.596827 96.729918
91.827644 48.285919 56.394038
54.709785 76.347706 47.448592
12.263015 32.428344 56.827604
35.107439 81.354848 94.790500
24.199810 88.914610 71.570684
58.695550 13.039061 41.095021
99.535250 64.835141 59.168340
3.561723 32.088833 48.815579
64.166483 85.711594 45.806849
27.445346 28.128212 13.781092
14.553880 30.531869 76.658457
41.322064 85.956682 94.915316
7.542015 71.082287 8.526589
7.172816 27.576925 10.160256
66.297182 71.611956 63.926427
57.535687 78.123910 77.257841
87.025602 69.319580 35.587436
52.468054 49.060002 10.786686
81.174309 91.285386 98.440889
24.796766 9.564019 11.104185
80.429697 63.174168 75.612014
90.519640 22.626926 36.408531
79.237110 25.939190 50.604086
44.345067 59.530516 98.820287
10.371501 48.464238 95.898681
34.787688 74.059731 92.927042
24.060742 8.138025 7.569303
7.299362 35.052085 12.621463
40.502583 75.412758 29.822620
47.941818 12.736880 69.828971
31.767479 13.522577 95.467056
76.962245 65.232770 72.299964
42.549232 29.833110 49.998666
82.525802 96.379269 60.528130
37.635963 71.820599 69.706779
24.746427 43.551403 13.401362
40.227834 76.274880 31.390274
63.303271 32.764967 14.710367
74.138756 58.931224 82.545766
67.895411 81.719216 15.494808
61.458367 36.737859 74.650647
58.008605 5.418010 53.354598
74.429133 26.278839 65.452651
84.092577 6.516754 57.802237
88.760090 12.641989 26.924767
62.592404 58.518389 79.339612
62.905288 57.584502 45.185139
7.824928 59.108831 15.662583
99.584949 7.850008 7.571630
78.732943 10.116526 40.507628
92.749903 78.788247 23.284220
25.102987 59.227025 48.643914
11.674636 15.864734 80.289633
34.479076 79.901225 18.982729
59.943253 50.510873 32.638548
60.857704 12.453484 85.646840
74.338335 28.697333 58.015177
90.216890 42.230479 36.334161
79.894712 0.118602 68.637324
21.580606 69.424699 43.790100
2.029523 87.425985 54.653976
31.360124 70.337964 49.594050
3.494859 65.025640 96.953161
22.197943 86.292609 62.099491
7.789839 72.997498 44.149015
79.373398 63.574556 0.278466
12.629721 35.243962 48.185432
93.212729 82.197221 80.161546
53.957640 9.286371 74.580751
8.654832 9.144771 25.508596
92.256374 74.991879 7.665255
91.891045 78.337518 60.364279
12.696203 32.012285 30.068182
64.004714 58.786962 27.724099
31.109924 51.844172 84.540660
12.622504 72.573807 99.567422
74.973288 44.157112 73.167457
86.068647 76.850010 1.275750
13.149352 10.714261 3.182595
71.452300 26.737345 72.195661
66.609844 52.361115 5.971422
30.530622 2.711475 91.002024
30.863362 9.494955 0.251812
61.151267 62.096905 99.492529
28.860919 4.652520 77.938236
30.458196 33.065904 90.773434
57.537028 40.034965 95.055771
26.529116 2.147791 23.087528
4.412597 40.774734 83.106656
97.517957 70.032092 92.611491
40.853203 30.270948 15.422523
50.088070 32.693806 10.753770
93.191505 12.370381 73.973941
6.807507 52.711647 67.480253
23.453448 7.564965 59.336460
60.290690 31.198250 37.619335
4.560577 29.578859 88.260248
17.129451 46.805189 67.682622
80.288226 8.114917 59.183612
62.729017 19.738136 3.084852
84.436690 44.006983 6.077927
57.802871 37.691296 8.020131
28.711123 32.683112 57.490498
40.333354 10.699218 63.533542
72.879919 50.730297 6.335074
10.322479 94.464588 18.936536
30.749456 68.751372 79.183562
91.101892 39.518575 99.229200
10.389053 82.653426 27.210615
93.709092 86.919631 76.227061
60.374745 21.445634 46.192536
3.478582 70.940357 11.587927
25.828823 24.504959 78.794866
40.064781 53.454098 20.861856
33.410211 51.189894 19.420389
68.981250 44.926738 98.365042
24.653040 39.605960 92.466288
88.599739 48.416980 12.359356
40.878138 58.733062 25.422914
19.113288 53.143766 17.602399
87.453474 7.424087 98.740068
53.794301 98.356232 75.151605
15.289809 22.743753 10.694690
72.908529 16.865847 71.457969
85.949849 41.171444 66.103751
89.519578 75.312561 13.076062
29.251223 53.563762 26.426914
50.592380 95.283075 45.316707
26.166985 14.657868 90.109750
22.979319 19.362010 55.113728
46.171105 38.566489 57.865168
56.940589 6.840252 41.491866
72.098662 38.167915 99.765935
23.538506 49.636429 67.392928
54.786269 3.907312 51.366619
96.642717 40.666388 11.617888
2.125841 41.226482 18.529682
83.469875 95.225747 94.053007
37.452953 45.475706 31.507973
12.905246 55.903880 18.620525
5.940820 84.943333 79.851599
92.628242 32.740577 87.072055
39.845193 7.277943 45.784110
55.378615 43.209252 78.543587
35.182778 92.106102 7.416337
72.040734 92.897798 55.316221
87.867830 69.183119 1.452933
67.124464 65.656166 0.002746
40.916073 3.879942 29.299880
98.658248 94.028418 68.485927
36.685209 39.645193 3.821469
33.828492 78.438453 51.935295
47.667778 9.109792 91.900048
28.307322 38.290281 33.070985
32.873410 59.932395 62.703234
59.856211 6.849813 96.953748
71.398770 88.272868 15.966933
93.210807 72.168067 50.071574
2.313251 25.318577 83.874137
37.918170 67.827673 73.079303
77.564971 38.235228 90.983338
29.219996 83.606460 42.473307
23.422885 34.344935 79.956344
61.487057 13.667871 12.396726
68.720081 23.949227 20.865948
74.950177 32.265367 6.830526
42.483487 56.917870 60.148920
5.850541 45.355931 35.956199
44.893475 4.169730 29.560691
64.345854 12.591636 95.922039
99.391075 36.044230 68.095544
63.534352 16.716482 38.819411
98.064629 12.767427 57.517677
59.918074 16.752543 53.524815
91.746209 11.565621 18.974299
25.562858 75.097958 57.725142
50.354703 79.206421 97.826714
19.595805 81.205042 37.008837
14.599122 25.652010 39.929648
89.916089 47.840953 61.430306
3.323447 6.400671 93.833263
83.831781 48.964065 20.039826
4.017562 97.534885 0.567229
23.764779 68.390297 93.789826
11.705931 77.389100 33.176813
67.971843 9.663323 86.481683
70.722393 95.560184 50.241916
88.769133 54.039863 51.278919
9.461042 81.416948 41.220252
60.002504 65.069163 77.481130
57.534431 61.991055 52.075466
61.395172 44.422901 77.641151
81.050725 51.710757 14.662804
37.349797 83.993867 91.674900
26.705300 94.110260 27.671324
91.887684 93.543553 50.483191
95.055215 54.927237 37.889029
81.015951 10.852210 21.665507
21.325011 62.207353 70.887283
83.742541 89.986196 87.504752
68.199460 91.482668 27.554454
72.527593 7.666743 12.522842
22.612214 10.267674 96.566585
46.624423 90.670436 47.663195
69.967619 32.171480 95.066545
3.489446 69.740458 95.037999
78.814863 82.759628 29.916302
45.184799 13.618093 37.640557
0.843527 77.876961 95.301235
70.084935 81.029759 51.346973
19.166847 72.081546 29.928380
45.952500 90.066784 37.293713
28.936952 3.169450 70.145687
21.521992 63.941663 36.660417
78.767568 88.989448 23.570324
79.231110 15.281379 14.092735
42.844565 32.450950 98.715777
80.397898 89.023689 13.599766
71.396096 60.428431 9.923925
79.366359 85.378180 91.409300
93.982054 10.781057 88.217229
94.536002 69.079420 18.385134
40.083767 9.011024 0.424645
92.006208 97.233841 91.929289
25.396258 62.111093 49.969763
49.604757 42.833382 94.118046
79.088940 84.686857 3.461068
41.195017 59.797827 65.872151
89.487977 16.700292 9.003671
89.319886 50.661924 53.921556
89.000066 74.980997 73.075449
18.602846 62.141029 45.007123
61.104150 57.567718 2.627997
34.387541 45.780321 50.022192
9.946927 89.853890 33.431569
48.942198 66.372741 71.908164
37.802752 12.911283 20.731767
16.505186 24.413780 60.364633
53.575882 16.863045 68.151650
6.370470 90.960702 56.619083
59.041732 28.589384 51.163700
42.625729 95.074645 7.622146
45.873564 79.151735 54.457709
56.521796 91.121561 37.569278
0.206436 92.567141 3.305975
79.740412 13.959422 2.068419
35.467024 86.405643 3.693787
26.268011 27.904923 9.480693
9.255804 90.818062 69.529565
31.113754 23.832078 4.288121
35.878723 30.113457 91.707981
22.050857 40.514724 68.201409
32.118037 78.178596 72.625642
3.546895 85.583063 36.390007
9.585574 69.834560 74.714665
7.100970 35.392066 89.548049
66.943797 53.392170 50.411299
60.841633 65.302094 6.883658
33.414829 52.665195 73.034147
74.277473 60.550933 58.652483
36.775085 83.470007 91.640023
84.631741 87.192099 90.881008
20.206364 51.387657 53.454030
48.542490 84.848852 32.503893
16.131371 27.430061 14.312765
40.479005 11.681110 8.757576
45.100525 60.114075 60.764188
9.228665 97.157495 12.174629
66.046346 88.864050 88.476604
51.212897 27.745280 82.786948
61.258980 79.104659 39.999203
91.342866 92.959267 73.734710
94.256683 45.349821 19.446362
65.590405 65.336509 49.132203
26.061856 62.434295 18.077974
75.329895 90.681203 16.662121
82.027131 19.847202 50.042429
92.924612 8.271072 8.976672
95.872348 15.884936 34.204763
45.899400 0.669598 18.808039
82.840542 51.885384 39.389799
68.196968 32.476916 43.853845
99.372635 77.428615 55.397331
52.674546 84.427196 60.086695
33.927865 41.779171 18.338970
95.952058 65.220631 39.857042
35.988792 90.699231 36.031555
75.636479 83.542632 90.980034
37.305185 76.532690 32.688177
94.401913 1.116016 57.019045
50.995194 87.762248 21.631225
8.728790 84.643956 35.010190
32.491925 10.531047 92.005891
63.295783 69.218378 89.793800
84.385453 45.181387 15.977204
67.231390 65.071523 4.707959
89.940135 33.523924 42.877975
51.378140 91.201924 17.048987
36.868979 50.134051 99.189873
43.975105 39.853781 93.502681
66.149486 16.357426 17.580186
64.445269 46.705535 0.896806
44.859208 93.969531 74.737889
55.860251 19.519612 33.564006
99.663928 65.905366 27.628758
73.799084 9.136487 37.058237
22.913082 89.600808 73.514551
49.749986 40.780012 85.858720
19.543169 7.476281 85.177078
85.649612 24.307643 19.528383
72.130717 14.338517 62.195100
70.123461 62.197995 42.692837
81.617772 92.998347 70.570868
41.895125 99.570132 44.941584
11.626343 18.258223 34.794444
17.111667 77.829244 1.410570
40.588330 87.820710 11.773673
57.608382 93.384898 7.159632
34.972576 3.766177 68.219432
41.749931 94.732138 69.128993
60.194057 91.032232 12.966228
78.344498 72.980473 67.325097
63.807678 12.437300 81.404337
63.515406 77.147298 87.609009
54.242598 95.688524 10.920138
0.403787 32.994361 21.655009
55.360989 28.029540 68.813764
94.532850 76.925646 42.025185
98.550294 77.118239 81.088158
20.474905 68.689947 7.063537
23.530941 1.643780 70.523614
2.094622 44.917678 64.886735
30.499556 36.728044 86.815901
90.141304 85.870006 74.993443
27.752935 7.467714 48.869538
92.439296 22.337364 20.954939
77.964880 59.198819 40.429988
86.267028 58.252826 92.026755
36.815025 44.407550 7.430351
36.768942 17.971427 3.283211
25.576191 49.062664 24.735776
10.908861 45.153404 14.784732
8.599321 96.018266 47.595627
80.232734 17.078406 46.154988
8.992463 41.180074 82.639977
89.274763 51.900610 28.640228
73.346920 63.892838 47.047654
47.536354 49.321420 33.924227
51.897079 5.737391 57.018382
49.620461 42.056266 32.399368
62.178034 48.497530 10.083962
37.445269 7.650539 37.916941
53.283190 39.102896 34.163002
28.114929 38.177250 6.931070
99.390075 55.533914 63.617575
18.314065 92.340476 57.116403
41.437394 71.321403 30.435039
93.464069 16.931412 83.311051
96.660832 49.174259 87.665990
7.156284 62.058892 35.623263
36.431137 45.036333 59.677638
61.601351 27.827262 38.394596
24.952626 63.254030 10.203483
42.357448 97.848738 98.877832
51.796325 24.746001 58.349593
48.846079 4.248671 98.909469
32.716725 39.927964 51.356103
88.036995 79.911960 20.555015
71.644631 87.456471 71.426392
13.918432 53.889850 83.855793
19.561708 53.853729 66.955049
63.536998 10.660404 27.745582
55.213286 20.876320 33.371205
41.507634 1.362400 51.042295
99.475656 40.826784 27.429839
25.299539 51.517443 45.601044
86.198515 63.924474 39.865215
38.574687 54.719059 25.336806
42.284561 28.504011 51.546620
54.660237 84.680926 25.117716
90.472493 53.526835 72.683348
61.167158 82.903886 66.313968
1.107353 39.027529 93.836423
45.145260 82.838464 86.895980
33.257796 85.772471 37.743500
2.536043 69.440748 82.028928
45.160752 17.340936 61.528478
73.825680 65.481695 35.579264
36.832940 54.909742 19.339368
84.617645 10.231905 48.654968
85.943902 52.941800 76.094945
23.957754 44.551247 71.306012
88.833023 64.304562 24.276651
14.629281 84.153982 55.403589
18.387206 48.567674 12.632265
10.517165 91.997692 54.462717
24.891263 88.126679 99.888424
88.420202 74.759131 96.206691
19.738723 87.769362 35.873947
3.223790 3.237794 18.783435
77.948886 89.667178 12.796230
84.538261 75.547244 5.222410
73.138955 3.837923 26.258303
53.090940 90.925894 10.535179
34.830536 57.691685 74.020525
91.538864 46.885012 84.089946
61.702170 20.405397 57.958762
31.381761 70.364242 28.454088
26.284416 94.536329 90.869945
45.174522 76.546747 98.206252
8.862512 60.616525 25.349754
80.001504 10.141086 78.881046
20.060933 45.601936 81.382078
6.746349 92.816978 21.734836
50.072809 73.456917 12.349710
60.874563 51.556744 58.583423
66.249531 42.062804 29.876921
18.385347 93.906599 40.137579
28.222434 5.254666 75.120642
52.774563 19.096421 89.337384
93.378061 88.067631 56.097104
37.327975 16.188574 37.724331
61.217063 22.655337 46.396272
57.309287 73.143449 9.135112
86.699626 45.607441 58.193105
94.031678 16.797871 88.448602
80.443042 99.402737 39.304228
12.684711 1.417615 79.259589
13.659619 30.601212 98.731504
44.209495 23.120570 75.323356
27.155368 53.102188 15.733199
46.083292 10.861771 77.309471
36.513902 31.880369 99.378581
82.970253 55.392526 94.421224
21.139873 57.348543 92.905725
56.970653 30.798978 81.165601
13.881013 15.200030 73.112489
6.933185 5.063078 37.907472
39.790650 46.965032 74.073215
56.885296 71.354858 4.989455
31.570325 96.640691 42.776525
22.249167 99.208619 41.131814
47.878185 22.379719 65.635307
20.723007 60.992357 75.743924
65.239783 9.038227 7.977410
84.235155 90.455910 13.566037
37.546019 65.406686 83.548095
90.898521 69.868276 14.747452
76.835096 85.902493 35.130597
49.415268 16.638261 30.451950
86.979962 8.884723 76.242312
9.763707 29.262042 58.241241
0.331339 67.537249 31.619517
74.857031 97.523675 41.648909
2.999589 84.889158 27.457835
14.861648 87.921198 23.252970
60.528529 25.398365 71.245819
64.874659 50.916821 55.502490
22.724353 2.192680 80.070890
88.930128 77.786929 70.792494
47.192413 58.390310 69.162721
2.622817 42.367053 22.468651
36.444909 74.923171 36.338635
73.909475 97.183149 92.338279
82.772486 85.299081 39.393232
73.158239 66.701366 98.289215
57.489851 42.976609 83.726684
74.957335 12.486171 59.628019
59.230667 63.162485 94.149809
60.203562 87.001886 35.838081
5.737895 37.522274 53.266941
83.332138 63.184881 44.220207
46.187261 99.665728 14.134384
20.551608 62.528149 70.140549
39.497920 3.213181 52.201194
14.436015 5.604831 34.475963
13.565272 43.899696 76.169446
4.704604 49.989151 49.698041
0.177537 73.825107 8.973591
93.205533 63.936452 28.781613
92.528101 40.046052 26.026058
38.450076 61.158694 72.359699
66.182203 92.123670 95.617125
19.706281 91.254240 10.668187
95.689178 25.934485 26.578915
42.154555 18.174229 82.771865
12.473748 43.928880 90.715601
63.538910 60.716484 99.464422
2.254908 31.979369 12.501822
18.457728 21.600450 62.689011
27.210702 66.418451 73.806965
40.191280 53.632727 13.209217
75.263936 41.911828 83.463520
52.621952 69.676464 35.858269
37.176963 43.650844 63.603421
50.653358 80.427645 5.479738
90.054273 92.603667 24.407569
10.077635 57.185623 6.417017
22.971565 50.756603 61.381143
19.430483 93.273796 18.132310
15.365580 16.231998 92.952476
87.877102 3.304086 72.661532
7.348872 7.531054 7.602020
82.962098 42.743563 55.702949
3.081367 90.089170 98.202266
23.517857 65.651518 67.880296
96.628024 48.376615 23.791460
36.028263 63.961171 47.248712
7.940743 80.736623 86.426876
47.833217 52.347038 49.157328
52.974620 10.262234 43.363289
44.787530 99.771434 4.865317
31.213893 49.599527 84.723535
46.123712 29.100645 53.526821
29.702680 54.832147 68.986026
53.078235 60.963522 3.871744
65.880008 96.967539 49.164475
80.270823 54.890534 70.399872
30.991215 96.686415 21.514498
15.909762 4.552439 54.119056
61.890091 64.952197 17.223148
65.143709 16.510656 75.499316
27.524459 42.204592 36.722704
36.772305 72.094348 99.777292
52.732975 40.103889 29.369911
62.447823 45.118322 77.283587
60.668914 41.192139 95.301125
1.126458 68.948802 41.079146
12.162183 9.269545 64.931899
14.777315 85.607605 31.092799
34.384286 66.012444 22.016388
0.703921 44.582934 52.787978
44.589553 45.799170 66.573890
84.568879 36.550556 79.009355
6.268377 48.026086 37.615192
46.594058 9.147786 13.882932
29.347996 27.353163 38.509658
45.725888 22.117252 61.922044
37.582156 6.013528 24.369671
